# .PCD v0.7 - Point Cloud Data file format
VERSION 0.7
FIELDS x y z rgb
SIZE 4 4 4 4
TYPE F F F F
COUNT 1 1 1 1
WIDTH 973
HEIGHT 1
VIEWPOINT 0 0 0 1 0 0 0
POINTS 973
DATA ascii
-0.051842559 0.704 -0.013577812 1.9910265e-38
-0.050536323 0.70300001 -0.013558527 2.0187211e-38
-0.049303733 0.70300001 -0.013558527 2.0371229e-38
-0.047865998 0.69999999 -0.013500666 1.9818056e-38
-0.046638668 0.69999999 -0.013500666 2.027364e-38
-0.045281585 0.69800001 -0.013462093 2.045839e-38
-0.04405776 0.69800001 -0.013462093 1.8805343e-38
-0.042956665 0.69999999 -0.013500666 1.6316421e-38
-0.041729331 0.69999999 -0.013500666 1.695712e-38
-0.040559858 0.70099998 -0.013519952 1.7049317e-38
-0.039330769 0.70099998 -0.013519952 1.6130247e-38
-0.038210396 0.70300001 -0.013558527 1.6130247e-38
-0.036977798 0.70300001 -0.013558527 1.5763262e-38
-0.035745207 0.70300001 -0.013558527 1.5210089e-38
-0.034512613 0.70300001 -0.013558527 1.604092e-38
-0.033280019 0.70300001 -0.013558527 1.8253974e-38
-0.031956252 0.70099998 -0.013519952 1.9910239e-38
-0.030727165 0.70099998 -0.013519952 1.8158163e-38
-0.029624319 0.704 -0.013577812 1.4106573e-38
-0.027704418 0.68699998 -0.013249939 1.2539249e-38
-0.026499879 0.68699998 -0.013249939 1.4471789e-38
-0.025295338 0.68699998 -0.013249939 1.8436201e-38
-0.024090799 0.68699998 -0.013249939 1.7623741e-38
-0.022886258 0.68699998 -0.013249939 2.2683366e-38
-0.021681719 0.68699998 -0.013249939 2.3509886e-38
-0.020506985 0.68800002 -0.013269227 2.3509886e-38
-0.019300694 0.68800002 -0.013269227 2.3509886e-38
-0.018068098 0.68699998 -0.013249939 2.3509886e-38
-0.01686356 0.68699998 -0.013249939 2.3509886e-38
-0.015978126 0.70099998 -0.013519952 2.3509886e-38
-0.014749039 0.70099998 -0.013519952 1.4384257e-38
-0.013558527 0.70300001 -0.013558527 8.2071487e-39
-0.012325933 0.70300001 -0.013558527 7.0096621e-39
-0.01109334 0.70300001 -0.013558527 1.2910182e-38
-0.0098326923 0.70099998 -0.013519952 2.0908235e-38
-0.0086036054 0.70099998 -0.013519952 2.3497275e-38
-0.0073745195 0.70099998 -0.013519952 2.3504827e-38
-0.0061454331 0.70099998 -0.013519952 2.3503028e-38
-0.0049093333 0.69999999 -0.013500666 2.3470574e-38
-0.0036714801 0.69800001 -0.013462093 1.6922882e-38
-0.0024476533 0.69800001 -0.013462093 2.0037716e-38
-0.0012238267 0.69800001 -0.013462093 2.1236241e-38
0.066844068 0.70599997 -0.013616386 6.807358e-39
0.067889065 0.704 -0.013577812 6.807358e-39
0.06912341 0.704 -0.013577812 6.5329361e-39
0.083816342 0.70300001 -0.013558527 5.808675e-39
0.085048936 0.70300001 -0.013558527 6.0856206e-39
0.086281531 0.70300001 -0.013558527 8.5698622e-39
0.098067433 0.708 -0.013654959 9.2051478e-39
0.099308796 0.708 -0.013654959 1.2780624e-38
0.10083419 0.70999998 -0.013693533 1.2780624e-38
0.10207906 0.70999998 -0.013693533 1.6080232e-38
0.10332392 0.70999998 -0.013693533 1.7094384e-38
0.10456879 0.70999998 -0.013693533 1.5456073e-38
0.1059627 0.71100003 -0.01371282 1.6839007e-38
0.10751089 0.713 -0.013751393 1.4826522e-38
0.10891356 0.71399999 -0.01377068 1.5379696e-38
0.11016544 0.71399999 -0.01377068 1.5103109e-38
0.11172941 0.71600002 -0.013809253 1.4549936e-38
0.1129848 0.71600002 -0.013809253 1.5182335e-38
0.11439974 0.71700001 -0.013828539 1.3338422e-38
0.11614081 0.72000003 -0.0138864 1.5807546e-38
0.11789237 0.72299999 -0.01394426 1.6268885e-38
0.11916003 0.72299999 -0.01394426 1.305969e-38
0.12076083 0.72500002 -0.013982833 1.1031386e-38
0.12236863 0.727 -0.014021406 4.1437433e-39
0.12381338 0.72799999 -0.014040692 6.1720471e-39
-0.1121958 0.71100003 -0.014959441 1.6530389e-38
-0.11094918 0.71100003 -0.014959441 2.2423365e-38
-0.10970256 0.71100003 -0.014959441 2.2354142e-38
-0.10876101 0.713 -0.015001519 2.1063403e-38
-0.10751089 0.713 -0.015001519 2.2153523e-38
-0.10626076 0.713 -0.015001519 2.0862801e-38
-0.10501064 0.713 -0.015001519 2.1228708e-38
-0.10419709 0.71600002 -0.01506464 2.1413455e-38
-0.10337302 0.71899998 -0.01512776 2.1412037e-38
-0.10211238 0.71899998 -0.01512776 2.113509e-38
-0.100992 0.72000003 -0.0151488 2.1230592e-38
-0.099729598 0.72000003 -0.0151488 2.3454452e-38
-0.098740719 0.722 -0.015190879 2.3473903e-38
-0.097474813 0.722 -0.015190879 2.3472101e-38
-0.096342154 0.72299999 -0.015211919 2.3462687e-38
-0.095074497 0.72299999 -0.015211919 2.0973045e-38
-0.094066329 0.72500002 -0.015254001 2.1239887e-38
-0.077763841 0.69300002 -0.014580719 1.5476578e-38
-0.076548778 0.69300002 -0.014580719 1.8519032e-38
-0.072826453 0.704 -0.014812159 1.8990852e-38
-0.071287021 0.70099998 -0.014749039 1.7056207e-38
-0.053076904 0.704 -0.014812159 2.0279774e-38
-0.051768921 0.70300001 -0.014791119 2.0554904e-38
-0.050536323 0.70300001 -0.014791119 2.0738937e-38
-0.049163464 0.70099998 -0.014749039 2.037051e-38
-0.047729239 0.69800001 -0.01468592 1.9448195e-38
-0.046505414 0.69800001 -0.01468592 1.8343653e-38
-0.045281585 0.69800001 -0.01468592 1.9265249e-38
-0.04405776 0.69800001 -0.01468592 1.8714226e-38
-0.042956665 0.69999999 -0.014727999 1.6040553e-38
-0.041610107 0.69800001 -0.01468592 1.6493978e-38
-0.040386278 0.69800001 -0.01468592 1.6586174e-38
-0.039274666 0.69999999 -0.014727999 1.5207918e-38
-0.038047329 0.69999999 -0.014727999 1.5945843e-38
-0.036819998 0.69999999 -0.014727999 1.6589764e-38
-0.035592664 0.69999999 -0.014727999 1.6128786e-38
-0.034365334 0.69999999 -0.014727999 1.6501165e-38
-0.033137999 0.69999999 -0.014727999 1.8529469e-38
-0.031910665 0.69999999 -0.014727999 1.9818759e-38
-0.030683333 0.69999999 -0.014727999 1.852802e-38
-0.029455997 0.69999999 -0.014727999 1.6860219e-38
-0.028228667 0.69999999 -0.014727999 1.6307045e-38
-0.027117053 0.70300001 -0.014791119 1.7237676e-38
-0.025295338 0.68699998 -0.014454478 2.3509866e-38
-0.024090799 0.68699998 -0.014454478 2.3509886e-38
-0.022886258 0.68699998 -0.014454478 2.3509886e-38
-0.021713281 0.68800002 -0.014475521 2.3509886e-38
-0.020506985 0.68800002 -0.014475521 2.3509886e-38
-0.019581227 0.69800001 -0.01468592 2.3509886e-38
-0.0183574 0.69800001 -0.01468592 2.3509886e-38
-0.017133573 0.69800001 -0.01468592 2.3509886e-38
-0.015909746 0.69800001 -0.01468592 2.3509886e-38
-0.01468592 0.69800001 -0.01468592 1.8993688e-38
-0.013500666 0.69999999 -0.014727999 1.217121e-38
-0.012273333 0.69999999 -0.014727999 1.0132499e-38
-0.011045999 0.69999999 -0.014727999 1.4557529e-38
-0.0097906133 0.69800001 -0.01468592 2.2018587e-38
-0.0085667865 0.69800001 -0.01468592 2.3509886e-38
-0.00733244 0.69700003 -0.01466488 2.3509886e-38
-0.0061103669 0.69700003 -0.01466488 2.3509886e-38
-0.0048882933 0.69700003 -0.01466488 2.3501867e-38
-0.00366622 0.69700003 -0.01466488 1.6764744e-38
-0.0024441467 0.69700003 -0.01466488 2.0680206e-38
-0.0012220733 0.69700003 -0.01466488 2.141776e-38
0.065327443 0.70300001 -0.014791119 6.3503133e-39
0.066560037 0.70300001 -0.014791119 5.8900708e-39
0.067792632 0.70300001 -0.014791119 6.0744621e-39
0.069025226 0.70300001 -0.014791119 5.9837126e-39
0.070257813 0.70300001 -0.014791119 5.7071243e-39
0.082583755 0.70300001 -0.014791119 1.5673425e-39
0.083816342 0.70300001 -0.014791119 2.2180999e-39
0.084806979 0.70099998 -0.014749039 1.4805349e-39
0.086036064 0.70099998 -0.014749039 3.2142424e-39
0.087514125 0.70300001 -0.014791119 5.1499849e-39
0.088746719 0.70300001 -0.014791119 6.0751655e-39
0.089979313 0.70300001 -0.014791119 4.0468617e-39
0.097790405 0.70599997 -0.014854239 5.4309074e-39
0.09902826 0.70599997 -0.014854239 1.1312667e-38
0.10040814 0.70700002 -0.01487528 1.1220113e-38
0.10179152 0.708 -0.01489632 1.5989792e-38
0.10303288 0.708 -0.01489632 1.5989792e-38
0.10456879 0.70999998 -0.014938398 1.4705537e-38
0.10581366 0.70999998 -0.014938398 1.6088472e-38
0.10720932 0.71100003 -0.014959441 1.4258233e-38
0.10876101 0.713 -0.015001519 1.600995e-38
0.11016544 0.71399999 -0.015022559 1.592207e-38
0.11141731 0.71399999 -0.015022559 1.6290854e-38
0.1129848 0.71600002 -0.01506464 1.5914862e-38
0.11424018 0.71600002 -0.01506464 1.3425939e-38
0.11565688 0.71700001 -0.015085679 1.5348725e-38
0.11740319 0.72000003 -0.0151488 1.5625307e-38
0.11899523 0.722 -0.015190879 1.4071321e-38
0.12076083 0.72500002 -0.015254001 1.2780582e-38
0.12236863 0.727 -0.015296079 3.5851843e-39
0.12381338 0.72799999 -0.01531712 5.7975193e-39
-0.11264464 0.70599997 -0.016092092 1.856262e-38
-0.11140679 0.70599997 -0.016092092 2.1512897e-38
-0.11048104 0.708 -0.01613768 2.3356808e-38
-0.10923968 0.708 -0.01613768 2.2350554e-38
-0.10845594 0.71100003 -0.01620606 2.1428237e-38
-0.10751089 0.713 -0.016251646 2.2430482e-38
-0.10626076 0.713 -0.016251646 2.1785113e-38
-0.10501064 0.713 -0.016251646 2.1785113e-38
-0.10419709 0.71600002 -0.016320027 2.1785113e-38
-0.10308547 0.71700001 -0.016342819 2.1326318e-38
-0.10211238 0.71899998 -0.016388407 2.16951e-38
-0.100992 0.72000003 -0.0164112 2.1144132e-38
-0.099729598 0.72000003 -0.0164112 2.3450464e-38
-0.098740719 0.722 -0.016456785 2.3088892e-38
-0.097474813 0.722 -0.016456785 2.1337534e-38
-0.096342154 0.72299999 -0.01647958 2.2528493e-38
-0.095074497 0.72299999 -0.01647958 2.3266058e-38
-0.094066329 0.72500002 -0.016525166 2.1517197e-38
-0.078978904 0.69300002 -0.015795778 1.914173e-38
-0.077763841 0.69300002 -0.015795778 1.5665306e-38
-0.076548778 0.69300002 -0.015795778 1.8246784e-38
-0.075659841 0.69599998 -0.015864158 1.8897934e-38
-0.074439511 0.69599998 -0.015864158 1.8805738e-38
-0.073219195 0.69599998 -0.015864158 1.8439479e-38
-0.072723009 0.70300001 -0.016023712 1.8992653e-38
-0.071287021 0.70099998 -0.015978126 1.7424618e-38
-0.070057929 0.70099998 -0.015978126 1.2353858e-38
-0.053001512 0.70300001 -0.016023712 1.6040217e-38
-0.051768921 0.70300001 -0.016023712 1.5945487e-38
-0.050320663 0.69999999 -0.015955333 1.585329e-38
-0.049093332 0.69999999 -0.015955333 1.4382811e-38
-0.047660861 0.69700003 -0.015886955 9.1276602e-39
-0.046438783 0.69700003 -0.015886955 1.0671984e-38
-0.045216713 0.69700003 -0.015886955 1.96146e-38
-0.043931518 0.69599998 -0.015864158 1.9083362e-38
-0.042711195 0.69599998 -0.015864158 1.7147254e-38
-0.041550495 0.69700003 -0.015886955 1.8513632e-38
-0.040328421 0.69700003 -0.015886955 1.9435228e-38
-0.039106347 0.69700003 -0.015886955 1.6494328e-38
-0.037938625 0.69800001 -0.015909746 1.7877263e-38
-0.0367148 0.69800001 -0.015909746 1.8525869e-38
-0.035490975 0.69800001 -0.015909746 1.8064891e-38
-0.034267146 0.69800001 -0.015909746 1.8524078e-38
-0.03299598 0.69700003 -0.015886955 1.9077251e-38
-0.03177391 0.69700003 -0.015886955 1.9265952e-38
-0.030551834 0.69700003 -0.015886955 1.8067409e-38
-0.029371841 0.69800001 -0.015909746 2.155109e-38
-0.028228667 0.69999999 -0.015955333 2.3500524e-38
-0.027001332 0.69999999 -0.015955333 2.3509886e-38
-0.025773998 0.69999999 -0.015955333 2.3509886e-38
-0.024476532 0.69800001 -0.015909746 2.3509886e-38
-0.023252707 0.69800001 -0.015909746 2.3509886e-38
-0.02199732 0.69700003 -0.015886955 2.3509886e-38
-0.020745439 0.69599998 -0.015864158 2.3509886e-38
-0.019525118 0.69599998 -0.015864158 2.3509886e-38
-0.018304799 0.69599998 -0.015864158 2.3509886e-38
-0.017084479 0.69599998 -0.015864158 2.3509886e-38
-0.015818574 0.69400001 -0.015818574 2.3509886e-38
-0.01460176 0.69400001 -0.015818574 2.3509886e-38
-0.013423519 0.69599998 -0.015864158 2.3509886e-38
-0.0122032 0.69599998 -0.015864158 2.3509886e-38
-0.010982879 0.69599998 -0.015864158 2.3509886e-38
-0.0097625591 0.69599998 -0.015864158 2.3509886e-38
-0.0085422397 0.69599998 -0.015864158 2.3509886e-38
-0.0073219193 0.69599998 -0.015864158 2.3509886e-38
-0.0060840664 0.69400001 -0.015818574 2.3509886e-38
-0.0048672534 0.69400001 -0.015818574 2.3509884e-38
-0.0036609597 0.69599998 -0.015864158 2.0560309e-38
-0.0024406398 0.69599998 -0.015864158 2.2242532e-38
-0.0012168133 0.69400001 -0.015818574 2.1873751e-38
0 0.69400001 -0.015818574 2.1244167e-38
0.062325738 0.69700003 -0.015886955 5.0609968e-39
0.06354782 0.69700003 -0.015886955 4.32991e-39
0.064769886 0.69700003 -0.015886955 4.606857e-39
0.066275999 0.69999999 -0.015955333 5.5248812e-39
0.067503333 0.69999999 -0.015955333 5.6170769e-39
0.068730667 0.69999999 -0.015955333 5.616372e-39
0.069957994 0.69999999 -0.015955333 6.3542958e-39
0.071185328 0.69999999 -0.015955333 6.7331705e-39
0.080772556 0.69800001 -0.015909746 1.2737746e-38
0.081996389 0.69800001 -0.015909746 1.4858246e-38
0.083220214 0.69800001 -0.015909746 1.7243107e-38
0.084444039 0.69800001 -0.015909746 1.6966161e-38
0.085667863 0.69800001 -0.015909746 1.714155e-38
0.087140664 0.69999999 -0.015955333 1.4467877e-38
0.088746719 0.70300001 -0.016023712 1.1333553e-38
0.089979313 0.70300001 -0.016023712 4.3270443e-39
0.095044687 0.704 -0.016046507 3.4948019e-39
0.096279033 0.704 -0.016046507 2.2998517e-39
0.097513385 0.704 -0.016046507 3.2218094e-39
0.09874773 0.704 -0.016046507 1.1317716e-38
0.10026611 0.70599997 -0.016092092 1.0580151e-38
0.10164775 0.70700002 -0.016114887 1.5808279e-38
0.10303288 0.708 -0.01613768 1.599231e-38
0.10427424 0.708 -0.01613768 1.5810441e-38
0.10581366 0.70999998 -0.016183265 1.6548365e-38
0.10705853 0.70999998 -0.016183265 1.5450645e-38
0.10830339 0.70999998 -0.016183265 1.5911265e-38
0.10970256 0.71100003 -0.01620606 1.6639813e-38
0.11126127 0.713 -0.016251646 1.6732008e-38
0.1126692 0.71399999 -0.016274439 1.6086996e-38
0.11392108 0.71399999 -0.016274439 1.5718219e-38
0.11517295 0.71399999 -0.016274439 1.5077523e-38
0.11691402 0.71700001 -0.016342819 1.5169717e-38
0.11850078 0.71899998 -0.016388407 1.4901436e-38
0.119928 0.72000003 -0.0164112 1.35185e-38
0.12203201 0.72500002 -0.016525166 5.4182943e-39
0.12381338 0.72799999 -0.016593546 7.0770897e-39
-0.11759606 0.70599997 -0.017329946 1.6912118e-38
-0.11635821 0.70599997 -0.017329946 1.7453055e-38
-0.11512035 0.70599997 -0.017329946 1.6899884e-38
-0.1138825 0.70599997 -0.017329946 1.902684e-38
-0.11232555 0.704 -0.017280852 2.0317579e-38
-0.1110912 0.704 -0.017280852 2.1973492e-38
-0.11016893 0.70599997 -0.017329946 2.2341915e-38
-0.10893109 0.70599997 -0.017329946 2.1974559e-38
-0.10830339 0.70999998 -0.017428132 2.1974559e-38
-0.10705853 0.70999998 -0.017428132 2.233865e-38
-0.1059627 0.71100003 -0.01745268 2.1970227e-38
-0.10471608 0.71100003 -0.01745268 2.2154241e-38
-0.10390604 0.71399999 -0.017526319 2.2154241e-38
-0.10294171 0.71600002 -0.017575413 2.1880545e-38
-0.10211238 0.71899998 -0.017649053 2.2433719e-38
-0.10085172 0.71899998 -0.017649053 2.2069997e-38
-0.099729598 0.72000003 -0.017673599 2.2162192e-38
-0.098740719 0.722 -0.017722692 2.1699063e-38
-0.097474813 0.722 -0.017722692 2.1238444e-38
-0.096342154 0.72299999 -0.017747238 2.1791978e-38
-0.095074497 0.72299999 -0.017747238 2.2529902e-38
-0.093806833 0.72299999 -0.017747238 2.1060178e-38
-0.078978904 0.69300002 -0.01701084 1.8227699e-38
-0.077763841 0.69300002 -0.01701084 1.6678752e-38
-0.076548778 0.69300002 -0.01701084 1.9076198e-38
-0.075659841 0.69599998 -0.017084479 1.8991204e-38
-0.074225612 0.69400001 -0.017035386 1.8899008e-38
-0.073008798 0.69400001 -0.017035386 1.8439832e-38
-0.071998879 0.69599998 -0.017084479 1.8993006e-38
-0.071287021 0.70099998 -0.017207211 1.6780308e-38
-0.070057929 0.70099998 -0.017207211 1.1986135e-38
-0.068828844 0.70099998 -0.017207211 1.1716013e-38
-0.053001512 0.70300001 -0.017256306 6.6607598e-39
-0.051768921 0.70300001 -0.017256306 1.245647e-38
-0.050320663 0.69999999 -0.017182667 1.3654654e-38
-0.048812799 0.69599998 -0.017084479 1.1876638e-38
-0.047592476 0.69599998 -0.017084479 8.1884525e-39
-0.046238903 0.69400001 -0.017035386 3.7806808e-39
-0.045022093 0.69400001 -0.017035386 1.4106217e-38
-0.043805279 0.69400001 -0.017035386 1.9267712e-38
-0.042588469 0.69400001 -0.017035386 1.677843e-38
-0.041490879 0.69599998 -0.017084479 1.6492514e-38
-0.040270556 0.69599998 -0.017084479 1.6860937e-38
-0.039050236 0.69599998 -0.017084479 1.5390146e-38
-0.037829921 0.69599998 -0.017084479 1.6312101e-38
-0.036609598 0.69599998 -0.017084479 1.6773439e-38
-0.035440128 0.69700003 -0.017109027 1.7049667e-38
-0.034168959 0.69599998 -0.017084479 1.6685925e-38
-0.032948639 0.69599998 -0.017084479 1.7607883e-38
-0.031728316 0.69599998 -0.017084479 1.8989019e-38
-0.030420333 0.69400001 -0.017035386 1.769828e-38
-0.029203519 0.69400001 -0.017035386 1.8980075e-38
-0.028148014 0.69800001 -0.017133573 2.349946e-38
-0.027001332 0.69999999 -0.017182667 2.2957079e-38
-0.025773998 0.69999999 -0.017182667 2.2219515e-38
-0.024476532 0.69800001 -0.017133573 2.3503754e-38
-0.023219392 0.69700003 -0.017109027 2.2857664e-38
-0.021871079 0.69300002 -0.01701084 2.0933427e-38
-0.020596405 0.69099998 -0.016961746 2.1670992e-38
-0.019384852 0.69099998 -0.016961746 2.2952378e-38
-0.0181733 0.69099998 -0.016961746 2.2952378e-38
-0.016961746 0.69099998 -0.016961746 2.2219497e-38
-0.015795778 0.69300002 -0.01701084 2.2496443e-38
-0.014580719 0.69300002 -0.01701084 2.3509886e-38
-0.01336566 0.69300002 -0.01701084 2.3509886e-38
-0.012150601 0.69300002 -0.01701084 2.3509886e-38
-0.010935539 0.69300002 -0.01701084 2.3509886e-38
-0.0097204801 0.69300002 -0.01701084 2.3509886e-38
-0.0085054198 0.69300002 -0.01701084 2.3509886e-38
-0.0072903596 0.69300002 -0.01701084 2.3509886e-38
-0.0060753003 0.69300002 -0.01701084 2.3509886e-38
-0.00486024 0.69300002 -0.01701084 2.3509886e-38
-0.0036504399 0.69400001 -0.017035386 2.2311698e-38
-0.0024336267 0.69400001 -0.017035386 2.1503934e-38
-0.00121506 0.69300002 -0.01701084 2.1227346e-38
0 0.69300002 -0.01701084 2.1337085e-38
0.0012115532 0.69099998 -0.016961746 2.0783912e-38
0.0024231065 0.69099998 -0.016961746 2.0693161e-38
0.061015997 0.69599998 -0.017084479 1.2612013e-38
0.062236317 0.69599998 -0.017084479 6.7115246e-39
0.063456632 0.69599998 -0.017084479 5.704204e-39
0.064769886 0.69700003 -0.017109027 6.8105432e-39
0.066086642 0.69800001 -0.017133573 6.4407055e-39
0.067503333 0.69999999 -0.017182667 6.3485098e-39
0.068730667 0.69999999 -0.017182667 4.7866099e-39
0.069957994 0.69999999 -0.017182667 8.8432177e-39
0.071185328 0.69999999 -0.017182667 1.1985805e-38
0.076990619 0.69700003 -0.017109027 0
0.078212693 0.69700003 -0.017109027 9.3963942e-39
0.079548739 0.69800001 -0.017133573 1.603448e-38
0.080772556 0.69800001 -0.017133573 1.8069637e-38
0.081996389 0.69800001 -0.017133573 1.8346224e-38
0.083220214 0.69800001 -0.017133573 1.7791243e-38
0.084444039 0.69800001 -0.017133573 1.6961122e-38
0.085667863 0.69800001 -0.017133573 1.6684535e-38
0.087140664 0.69999999 -0.017182667 1.5855134e-38
0.088367991 0.69999999 -0.017182667 1.5205401e-38
0.089979313 0.70300001 -0.017256306 8.475119e-39
0.0912119 0.70300001 -0.017256306 5.8828527e-39
0.092444502 0.70300001 -0.017256306 5.3300461e-39
0.093810342 0.704 -0.017280852 3.3125463e-39
0.095044687 0.704 -0.017280852 3.3125463e-39
0.096279033 0.704 -0.017280852 2.5746379e-39
0.097513385 0.704 -0.017280852 1.7448772e-39
0.09874773 0.704 -0.017280852 1.13134e-38
0.099982075 0.704 -0.017280852 1.0944617e-38
0.10121643 0.704 -0.017280852 1.5438783e-38
0.10288735 0.70700002 -0.017354494 1.6084153e-38
0.10427424 0.708 -0.017379038 1.5630721e-38
0.1055156 0.708 -0.017379038 1.7013655e-38
0.10675696 0.708 -0.017379038 1.5641142e-38
0.10830339 0.70999998 -0.017428132 1.4627349e-38
0.10970256 0.71100003 -0.01745268 1.4530469e-38
0.11094918 0.71100003 -0.01745268 1.4806696e-38
0.1125114 0.713 -0.017501773 1.4808129e-38
0.11376153 0.713 -0.017501773 1.4715932e-38
0.11501165 0.713 -0.017501773 1.5354464e-38
0.11642484 0.71399999 -0.017526319 1.4616911e-38
0.11800634 0.71600002 -0.017575413 1.5263362e-38
0.11942829 0.71700001 -0.017599959 1.5263362e-38
0.12152703 0.722 -0.017722692 6.3427477e-39
0.12279294 0.722 -0.017722692 6.4349433e-39
-0.11849727 0.704 -0.018515198 1.7917973e-38
-0.11726292 0.704 -0.018515198 1.5889693e-38
-0.11602858 0.704 -0.018515198 1.7266508e-38
-0.11479424 0.704 -0.018515198 1.9847969e-38
-0.11355989 0.704 -0.018515198 2.1708423e-38
-0.11216599 0.70300001 -0.018488899 2.1247446e-38
-0.1109334 0.70300001 -0.018488899 2.1881291e-38
-0.10970081 0.70300001 -0.018488899 2.1696898e-38
-0.10815962 0.70099998 -0.018436298 2.2155355e-38
-0.10693054 0.70099998 -0.018436298 2.206316e-38
-0.10615381 0.704 -0.018515198 2.2155002e-38
-0.10536657 0.70700002 -0.018594101 2.1878776e-38
-0.10456879 0.70999998 -0.018672999 2.1878773e-38
-0.10332392 0.70999998 -0.018672999 2.2247554e-38
-0.10265416 0.71399999 -0.018778199 2.1882013e-38
-0.10211238 0.71899998 -0.018909698 2.2803969e-38
-0.10085172 0.71899998 -0.018909698 2.1981042e-38
-0.099729598 0.72000003 -0.018935999 2.1888847e-38
-0.098740719 0.722 -0.0189886 2.1610465e-38
-0.097609811 0.72299999 -0.019014901 2.1333876e-38
-0.096342154 0.72299999 -0.019014901 2.1242757e-38
-0.095074497 0.72299999 -0.019014901 2.1703735e-38
-0.077876054 0.69400001 -0.0182522 1.6957144e-38
-0.07665924 0.69400001 -0.0182522 1.9354229e-38
-0.075442426 0.69400001 -0.0182522 1.871534e-38
-0.074225612 0.69400001 -0.0182522 1.8346918e-38
-0.073008798 0.69400001 -0.0182522 1.7244157e-38
-0.071998879 0.69599998 -0.018304799 1.7612939e-38
-0.071185328 0.69999999 -0.018409999 1.6867407e-38
-0.070057929 0.70099998 -0.018436298 1.216543e-38
-0.068828844 0.70099998 -0.018436298 1.3006341e-38
-0.055489492 0.68800002 -0.0180944 7.0064923e-45
-0.054283202 0.68800002 -0.0180944 5.5428221e-40
-0.053076908 0.68800002 -0.0180944 7.6678071e-40
-0.051870614 0.68800002 -0.0180944 8.2349869e-39
-0.050811596 0.69 -0.018146999 2.084558e-38
-0.049601797 0.69 -0.018146999 2.1397669e-38
-0.048391998 0.69 -0.018146999 1.1402005e-38
-0.047250576 0.69099998 -0.0181733 8.3591896e-39
-0.04617228 0.69300002 -0.018225901 7.5516829e-39
-0.044957221 0.69300002 -0.018225901 1.5664898e-38
-0.043742158 0.69300002 -0.018225901 1.9450687e-38
-0.042527102 0.69300002 -0.018225901 1.7790805e-38
-0.041312039 0.69300002 -0.018225901 1.751244e-38
-0.040154841 0.69400001 -0.0182522 1.7604636e-38
-0.038938027 0.69400001 -0.0182522 1.7236565e-38
-0.037721213 0.69400001 -0.0182522 1.6867424e-38
-0.036504399 0.69400001 -0.0182522 1.6223499e-38
-0.035389278 0.69599998 -0.018304799 1.6039108e-38
-0.034070771 0.69400001 -0.0182522 1.6041629e-38
-0.032853961 0.69400001 -0.0182522 1.7608955e-38
-0.031637147 0.69400001 -0.0182522 1.9173034e-38
-0.0303765 0.69300002 -0.018225901 1.7790099e-38
-0.029161438 0.69300002 -0.018225901 1.4746612e-38
-0.027946379 0.69300002 -0.018225901 1.4654416e-38
-0.02673132 0.69300002 -0.018225901 1.2353438e-38
-0.025700359 0.69800001 -0.0183574 9.9559916e-39
-0.024476532 0.69800001 -0.0183574 1.4357944e-38
-0.023219392 0.69700003 -0.018331099 9.8403887e-39
-0.021871079 0.69300002 -0.018225901 2.1394801e-39
-0.020596405 0.69099998 -0.0181733 6.6566918e-39
-0.019384852 0.69099998 -0.0181733 1.1689318e-38
-0.0181733 0.69099998 -0.0181733 1.0767003e-38
-0.016961746 0.69099998 -0.0181733 8.3882931e-39
-0.015795778 0.69300002 -0.018225901 8.6652401e-39
-0.014538639 0.69099998 -0.0181733 9.5072986e-39
-0.013327086 0.69099998 -0.0181733 1.7805265e-38
-0.012115533 0.69099998 -0.0181733 2.3509886e-38
-0.01090398 0.69099998 -0.0181733 2.3509886e-38
-0.0096924258 0.69099998 -0.0181733 2.3509886e-38
-0.008480873 0.69099998 -0.0181733 2.3509886e-38
-0.0072693196 0.69099998 -0.0181733 2.3509886e-38
-0.0060577663 0.69099998 -0.0181733 2.3509886e-38
-0.0048462129 0.69099998 -0.0181733 2.3509886e-38
-0.0036451798 0.69300002 -0.018225901 2.0835493e-38
-0.00243012 0.69300002 -0.018225901 2.0951838e-38
-0.00121506 0.69300002 -0.018225901 2.0767088e-38
0 0.69099998 -0.0181733 2.124383e-38
0.0012115532 0.69099998 -0.0181733 2.1520417e-38
0.0024231065 0.69099998 -0.0181733 2.1707704e-38
0.0036451798 0.69300002 -0.018225901 2.1707704e-38
0.052137118 0.708 -0.0186204 2.0549532e-38
0.059795678 0.69599998 -0.018304799 1.2179817e-38
0.061015997 0.69599998 -0.018304799 1.6203343e-38
0.062236317 0.69599998 -0.018304799 1.4451985e-38
0.063456632 0.69599998 -0.018304799 1.2988017e-38
0.064769886 0.69700003 -0.018331099 1.1051909e-38
0.066086642 0.69800001 -0.0183574 7.4516358e-39
0.067503333 0.69999999 -0.018409999 6.621515e-39
0.068730667 0.69999999 -0.018409999 4.0494205e-39
0.069758117 0.69800001 -0.0183574 1.1148484e-38
0.07098195 0.69800001 -0.0183574 1.5212982e-38
0.072412662 0.69999999 -0.018409999 1.4567613e-38
0.074653424 0.69800001 -0.0183574 3.4032943e-39
0.075768545 0.69700003 -0.018331099 0
0.076990619 0.69700003 -0.018331099 9.2337722e-40
0.078212693 0.69700003 -0.018331099 1.2808356e-38
0.079434767 0.69700003 -0.018331099 1.8893267e-38
0.080772556 0.69800001 -0.0183574 1.8253663e-38
0.081996389 0.69800001 -0.0183574 1.6040966e-38
0.083220214 0.69800001 -0.0183574 1.0415217e-38
0.084444039 0.69800001 -0.0183574 6.8195857e-39
0.085667863 0.69800001 -0.0183574 5.2573061e-39
0.087140664 0.69999999 -0.018409999 1.0973075e-38
0.088367991 0.69999999 -0.018409999 1.5576357e-38
0.089979313 0.70300001 -0.018488899 1.1795976e-38
0.0912119 0.70300001 -0.018488899 8.0054934e-39
0.092444502 0.70300001 -0.018488899 4.0411206e-39
0.093677096 0.70300001 -0.018488899 2.9434008e-39
0.094909683 0.70300001 -0.018488899 3.1281522e-39
0.096142277 0.70300001 -0.018488899 2.8505045e-39
0.097374871 0.70300001 -0.018488899 1.8367127e-39
0.098607466 0.70300001 -0.018488899 1.1034665e-38
0.099982075 0.704 -0.018515198 1.2141011e-38
0.10121643 0.704 -0.018515198 1.4887059e-38
0.10274182 0.70599997 -0.018567799 1.5440232e-38
0.10412696 0.70700002 -0.018594101 1.5266286e-38
0.10536657 0.70700002 -0.018594101 1.729495e-38
0.10675696 0.708 -0.0186204 1.573985e-38
0.10799832 0.708 -0.0186204 1.5002285e-38
0.10954826 0.70999998 -0.018672999 1.4271907e-38
0.11094918 0.71100003 -0.0186993 1.4732885e-38
0.1121958 0.71100003 -0.0186993 1.565234e-38
0.11344242 0.71100003 -0.0186993 1.4730382e-38
0.11501165 0.713 -0.018751899 1.5815111e-38
0.11626177 0.713 -0.018751899 1.5077545e-38
0.11767671 0.71399999 -0.018778199 1.5624231e-38
0.11926173 0.71600002 -0.0188308 1.6269591e-38
0.12051712 0.71600002 -0.0188308 8.1851973e-39
-0.11905133 0.69999999 -0.019637333 1.5988703e-38
-0.11782399 0.69999999 -0.019637333 1.5892204e-38
-0.11726292 0.704 -0.019749546 1.4693679e-38
-0.11586377 0.70300001 -0.019721493 1.7551001e-38
-0.11463118 0.70300001 -0.019721493 1.9487109e-38
-0.11355989 0.704 -0.019749546 2.1150578e-38
-0.11184688 0.70099998 -0.019665385 2.06896e-38
-0.11061779 0.70099998 -0.019665385 2.1786943e-38
-0.1093887 0.70099998 -0.019665385 2.1786943e-38
-0.10800533 0.69999999 -0.019637333 2.1878776e-38
-0.106778 0.69999999 -0.019637333 2.2062807e-38
-0.10570145 0.70099998 -0.019665385 2.2062804e-38
-0.10447236 0.70099998 -0.019665385 2.2062804e-38
-0.10324328 0.70099998 -0.019665385 2.1879494e-38
-0.10201418 0.70099998 -0.019665385 2.2340114e-38
-0.10064133 0.69999999 -0.019637333 2.1793061e-38
-0.099413998 0.69999999 -0.019637333 2.2254038e-38
-0.098186664 0.69999999 -0.019637333 2.1795578e-38
-0.09668231 0.69800001 -0.019581227 2.1795578e-38
-0.095321722 0.69700003 -0.019553173 2.1518638e-38
-0.094099648 0.69700003 -0.019553173 2.1334607e-38
-0.092877567 0.69700003 -0.019553173 2.124348e-38
-0.090471998 0.68800002 -0.019300694 2.1335676e-38
-0.079092868 0.69400001 -0.019469013 1.5928948e-38
-0.077876054 0.69400001 -0.019469013 1.668272e-38
-0.07665924 0.69400001 -0.019469013 1.9356394e-38
-0.075442426 0.69400001 -0.019469013 1.9545108e-38
-0.073904753 0.69099998 -0.019384852 1.9175965e-38
-0.072693199 0.69099998 -0.019384852 1.8353025e-38
-0.071998879 0.69599998 -0.019525118 1.9551209e-38
-0.071185328 0.69999999 -0.019637333 2.073027e-38
-0.070257813 0.70300001 -0.019721493 1.4276576e-38
-0.069025226 0.70300001 -0.019721493 6.0034331e-39
-0.055489492 0.68800002 -0.019300694 6.7475884e-39
-0.054283202 0.68800002 -0.019300694 1.0066632e-38
-0.052999757 0.68699998 -0.019272638 1.4673192e-38
-0.051795214 0.68699998 -0.019272638 1.9743554e-38
-0.050664321 0.68800002 -0.019300694 2.3509886e-38
-0.049458027 0.68800002 -0.019300694 2.3509886e-38
-0.048251733 0.68800002 -0.019300694 1.7042111e-38
-0.047045439 0.68800002 -0.019300694 7.7303513e-39
-0.045972396 0.69 -0.019356798 8.1052e-39
-0.0447626 0.69 -0.019356798 1.5480842e-38
-0.043552797 0.69 -0.019356798 1.9082625e-38
-0.042404365 0.69099998 -0.019384852 1.7515298e-38
-0.041312039 0.69300002 -0.01944096 1.7055796e-38
-0.04009698 0.69300002 -0.01944096 1.7885917e-38
-0.03888192 0.69300002 -0.01944096 1.8894659e-38
-0.037721213 0.69400001 -0.019469013 1.8802462e-38
-0.036504399 0.69400001 -0.019469013 1.8712062e-38
-0.035287585 0.69400001 -0.019469013 1.852767e-38
-0.034021679 0.69300002 -0.01944096 1.8435471e-38
-0.03280662 0.69300002 -0.01944096 1.8619864e-38
-0.031500384 0.69099998 -0.019384852 1.9173387e-38
-0.030288832 0.69099998 -0.019384852 1.8528017e-38
-0.029077278 0.69099998 -0.019384852 1.5761783e-38
-0.027865725 0.69099998 -0.019384852 1.391787e-38
-0.026654173 0.69099998 -0.019384852 1.5291762e-38
-0.025626717 0.69599998 -0.019525118 1.3816632e-38
-0.0244064 0.69599998 -0.019525118 1.0421579e-38
-0.023186078 0.69599998 -0.019525118 8.3932747e-39
-0.021807959 0.69099998 -0.019384852 7.193312e-39
-0.020596405 0.69099998 -0.019384852 1.0327963e-38
-0.019384852 0.69099998 -0.019384852 1.206673e-38
-0.0181733 0.69099998 -0.019384852 1.0868186e-38
-0.016961746 0.69099998 -0.019384852 1.1144793e-38
-0.015750192 0.69099998 -0.019384852 1.0407228e-38
-0.014517599 0.69 -0.019356798 4.2546532e-39
-0.0133078 0.69 -0.019356798 9.6019998e-39
-0.012062933 0.68800002 -0.019300694 1.8068581e-38
-0.010856641 0.68800002 -0.019300694 1.6777842e-38
-0.0096503468 0.68800002 -0.019300694 2.0012928e-38
-0.0084440531 0.68800002 -0.019300694 2.3509886e-38
-0.0072587994 0.69 -0.019356798 2.3509886e-38
-0.0060489997 0.69 -0.019356798 2.3509886e-38
-0.0048391996 0.69 -0.019356798 2.348939e-38
-0.0036346598 0.69099998 -0.019384852 1.6389246e-38
-0.0024231065 0.69099998 -0.019384852 2.0125321e-38
-0.0012115532 0.69099998 -0.019384852 2.1508255e-38
0 0.69 -0.019356798 2.1613705e-38
0.0012097999 0.69 -0.019356798 2.1060531e-38
0.0024195998 0.69 -0.019356798 2.1703751e-38
0.0036451798 0.69300002 -0.01944096 2.2533513e-38
0.050823875 0.70700002 -0.019833706 2.072851e-38
0.051989835 0.70599997 -0.019805651 1.879602e-38
0.053076904 0.704 -0.019749546 1.9348835e-38
0.054311249 0.704 -0.019749546 1.8525516e-38
0.059795678 0.69599998 -0.019525118 1.7893117e-38
0.061015997 0.69599998 -0.019525118 2.1376751e-38
0.062236317 0.69599998 -0.019525118 1.9901619e-38
0.063456632 0.69599998 -0.019525118 1.8327108e-38
0.064676955 0.69599998 -0.019525118 1.4086109e-38
0.06599196 0.69700003 -0.019553173 6.5325662e-39
0.06731046 0.69800001 -0.019581227 5.8871968e-39
0.068534292 0.69800001 -0.019581227 4.1401896e-39
0.069758117 0.69800001 -0.019581227 9.9481555e-39
0.07098195 0.69800001 -0.019581227 1.4567969e-38
0.072205767 0.69800001 -0.019581227 1.4567969e-38
0.073324397 0.69700003 -0.019553173 1.1514673e-38
0.074546471 0.69700003 -0.019553173 4.5996669e-39
0.075768545 0.69700003 -0.019553173 9.3595807e-40
0.076990619 0.69700003 -0.019553173 5.1773158e-39
0.078212693 0.69700003 -0.019553173 1.6033775e-38
0.079434767 0.69700003 -0.019553173 1.9352817e-38
0.080656841 0.69700003 -0.019553173 1.6872529e-38
0.081996389 0.69800001 -0.019581227 1.3276541e-38
0.083220214 0.69800001 -0.019581227 2.4871142e-39
0.084444039 0.69800001 -0.019581227 0
0.085667863 0.69800001 -0.019581227 0
0.086891696 0.69800001 -0.019581227 2.9545762e-39
0.088494234 0.70099998 -0.019665385 9.4172554e-39
0.089723319 0.70099998 -0.019665385 1.1076777e-38
0.090952404 0.70099998 -0.019665385 1.1046542e-38
0.092181489 0.70099998 -0.019665385 3.3979134e-39
0.093677096 0.70300001 -0.019721493 2.5735463e-39
0.094909683 0.70300001 -0.019721493 3.3111113e-39
0.095868751 0.70099998 -0.019665385 2.7590376e-39
0.097097836 0.70099998 -0.019665385 1.9289182e-39
0.098326929 0.70099998 -0.019665385 1.0207798e-38
0.09984006 0.70300001 -0.019721493 1.1775122e-38
0.10107265 0.70300001 -0.019721493 1.3971234e-38
0.10274182 0.70599997 -0.019805651 1.4616604e-38
0.10397967 0.70599997 -0.019805651 1.4442647e-38
0.10536657 0.70700002 -0.019833706 1.5733385e-38
0.10675696 0.708 -0.01986176 1.4178639e-38
0.10799832 0.708 -0.01986176 1.3348877e-38
0.10954826 0.70999998 -0.019917866 1.4275875e-38
0.11079313 0.70999998 -0.019917866 1.501344e-38
0.11203799 0.70999998 -0.019917866 1.5373958e-38
0.11328287 0.70999998 -0.019917866 1.4359805e-38
0.11468904 0.71100003 -0.01994592 1.5815466e-38
0.11626177 0.713 -0.020002026 1.5723269e-38
0.11751191 0.713 -0.020002026 1.5623514e-38
0.11876203 0.713 -0.020002026 1.6453262e-38
0.12018047 0.71399999 -0.020030079 1.1402685e-38
0.12143235 0.71399999 -0.020030079 9.0978126e-39
0.12302789 0.71600002 -0.020086186 4.9742228e-39
0.12428328 0.71600002 -0.020086186 6.8181354e-39
0.12553866 0.71600002 -0.020086186 7.6522205e-39
-0.11976318 0.69700003 -0.020775247 1.5615622e-38
-0.11905133 0.69999999 -0.020864666 1.4970262e-38
-0.11782399 0.69999999 -0.020864666 1.4603996e-38
-0.11709637 0.70300001 -0.020954086 1.4050831e-38
-0.11553414 0.70099998 -0.020894472 1.8013061e-38
-0.11430506 0.70099998 -0.020894472 1.9672224e-38
-0.11339859 0.70300001 -0.020954086 2.0684931e-38
-0.11184688 0.70099998 -0.020894472 2.0592735e-38
-0.11061779 0.70099998 -0.020894472 2.1694394e-38
-0.10923266 0.69999999 -0.020864666 2.1694394e-38
-0.10769674 0.69800001 -0.020805053 2.1969889e-38
-0.10647292 0.69800001 -0.020805053 2.1969889e-38
-0.10524909 0.69800001 -0.020805053 2.1969892e-38
-0.10432333 0.69999999 -0.020864666 2.2154283e-38
-0.10309599 0.69999999 -0.020864666 2.1971707e-38
-0.10186866 0.69999999 -0.020864666 2.2340848e-38
-0.10035378 0.69800001 -0.020805053 2.1700884e-38
-0.09912996 0.69800001 -0.020805053 2.1885275e-38
-0.097906128 0.69800001 -0.020805053 2.1792358e-38
-0.09668231 0.69800001 -0.020805053 2.1792358e-38
-0.095184952 0.69599998 -0.020745439 2.1607962e-38
-0.093289606 0.69099998 -0.020596405 2.1515766e-38
-0.091678292 0.68800002 -0.020506985 2.1241331e-38
-0.090471998 0.68800002 -0.020506985 2.1425723e-38
-0.078978904 0.69300002 -0.020656019 1.5468337e-38
-0.077763841 0.69300002 -0.020656019 1.6589097e-38
-0.076548778 0.69300002 -0.020656019 2.1659855e-38
-0.075116299 0.69099998 -0.020596405 2.3509886e-38
-0.0737978 0.69 -0.020566599 2.3509886e-38
-0.072587997 0.69 -0.020566599 2.3509886e-38
-0.071171306 0.68800002 -0.020506985 2.3509886e-38
-0.06996502 0.68800002 -0.020506985 2.3507373e-38
-0.068758719 0.68800002 -0.020506985 1.8802153e-38
-0.06735605 0.68599999 -0.020447372 6.8275185e-39
-0.06152096 0.68800002 -0.020506985 2.6675818e-39
-0.060314666 0.68800002 -0.020506985 4.6991283e-39
-0.059108373 0.68800002 -0.020506985 7.1880516e-39
-0.057902083 0.68800002 -0.020506985 7.2106937e-39
-0.056695789 0.68800002 -0.020506985 1.4586343e-38
-0.055408835 0.68699998 -0.020477179 2.1948682e-38
-0.054204296 0.68699998 -0.020477179 2.341805e-38
-0.052999757 0.68699998 -0.020477179 2.3509886e-38
-0.051795214 0.68699998 -0.020477179 2.3509886e-38
-0.050590675 0.68699998 -0.020477179 2.3509886e-38
-0.049386136 0.68699998 -0.020477179 2.3509886e-38
-0.048181597 0.68699998 -0.020477179 1.9726195e-38
-0.046977058 0.68699998 -0.020477179 1.4194097e-38
-0.045839146 0.68800002 -0.020506985 1.225577e-38
-0.044632856 0.68800002 -0.020506985 1.6588605e-38
-0.043426562 0.68800002 -0.020506985 1.8989333e-38
-0.042342998 0.69 -0.020566599 1.6500051e-38
-0.041133199 0.69 -0.020566599 1.5488834e-38
-0.039981257 0.69099998 -0.020596405 1.7240192e-38
-0.038769703 0.69099998 -0.020596405 1.8342219e-38
-0.037666857 0.69300002 -0.020656019 1.7789045e-38
-0.036451802 0.69300002 -0.020656019 1.8344355e-38
-0.035135046 0.69099998 -0.020596405 1.9081921e-38
-0.0338744 0.69 -0.020566599 1.8897526e-38
-0.032664597 0.69 -0.020566599 1.8713134e-38
-0.031454802 0.69 -0.020566599 1.917339e-38
-0.030244999 0.69 -0.020566599 1.8988998e-38
-0.029035198 0.69 -0.020566599 1.6497916e-38
-0.027744746 0.68800002 -0.020506985 1.5023146e-38
-0.026538454 0.68800002 -0.020506985 1.759884e-38
-0.02533216 0.68800002 -0.020506985 1.5017363e-38
-0.024195999 0.69 -0.020566599 9.0426519e-39
-0.02308614 0.69300002 -0.020656019 1.1531932e-38
-0.021807959 0.69099998 -0.020596405 1.4559313e-38
-0.020596405 0.69099998 -0.020596405 1.5573464e-38
-0.019384852 0.69099998 -0.020596405 1.6585798e-38
-0.0181733 0.69099998 -0.020596405 1.612482e-38
-0.016961746 0.69099998 -0.020596405 1.5109574e-38
-0.015727401 0.69 -0.020566599 1.4372009e-38
-0.014517599 0.69 -0.020566599 1.1240636e-38
-0.0133078 0.69 -0.020566599 1.0780017e-38
-0.012062933 0.68800002 -0.020506985 1.0139349e-38
-0.010856641 0.68800002 -0.020506985 5.7139584e-39
-0.0096363192 0.68699998 -0.020477179 1.2722977e-38
-0.0084317802 0.68699998 -0.020477179 2.3509886e-38
-0.0072377604 0.68800002 -0.020506985 2.3509886e-38
-0.0060314666 0.68800002 -0.020506985 2.2126229e-38
-0.0048391996 0.69 -0.020566599 2.1617377e-38
-0.0036293997 0.69 -0.020566599 1.6731368e-38
-0.0024195998 0.69 -0.020566599 2.069107e-38
-0.0012097999 0.69 -0.020566599 2.3364743e-38
0 0.68800002 -0.020506985 2.3465205e-38
0.0012062934 0.68800002 -0.020506985 2.2358498e-38
0.0024125867 0.68800002 -0.020506985 2.1979623e-38
0.0036188802 0.68800002 -0.020506985 2.2163654e-38
0.0048251734 0.68800002 -0.020506985 1.8867273e-38
0.045670826 0.704 -0.020983893 1.8238852e-38
0.046905171 0.704 -0.020983893 1.7500215e-38
0.050823875 0.70700002 -0.021073313 1.7225426e-38
0.051842559 0.704 -0.020983893 1.4183363e-38
0.053076904 0.704 -0.020983893 1.5381905e-38
0.054311249 0.704 -0.020983893 1.5394117e-38
0.060840666 0.69400001 -0.020685827 2.248489e-38
0.06205748 0.69400001 -0.020685827 1.9165848e-38
0.063456632 0.69599998 -0.020745439 1.7589517e-38
0.064676955 0.69599998 -0.020745439 1.2703508e-38
0.065897278 0.69599998 -0.020745439 6.1670108e-39
0.067214034 0.69700003 -0.020775247 6.0748152e-39
0.068436109 0.69700003 -0.020775247 4.3256542e-39
0.069658175 0.69700003 -0.020775247 6.9993275e-39
0.070880257 0.69700003 -0.020775247 1.0331691e-38
0.071998879 0.69599998 -0.020745439 1.3835125e-38
0.073219195 0.69599998 -0.020745439 1.5666402e-38
0.074439511 0.69599998 -0.020745439 1.0687837e-38
0.075659841 0.69599998 -0.020745439 8.9548325e-39
0.076990619 0.69700003 -0.020775247 1.2458266e-38
0.078212693 0.69700003 -0.020775247 1.6962223e-38
0.079434767 0.69700003 -0.020775247 1.7976015e-38
0.080656841 0.69700003 -0.020775247 1.5027537e-38
0.081878915 0.69700003 -0.020775247 1.0509951e-38
0.083100989 0.69700003 -0.020775247 0
0.084444039 0.69800001 -0.020805053 0
0.085667863 0.69800001 -0.020805053 8.4077908e-45
0.086891696 0.69800001 -0.020805053 9.2413952e-40
0.088115521 0.69800001 -0.020805053 2.7989704e-39
0.089723319 0.70099998 -0.020894472 8.6994907e-39
0.090952404 0.70099998 -0.020894472 1.1698768e-38
0.092181489 0.70099998 -0.020894472 1.5612034e-39
0.093410581 0.70099998 -0.020894472 1.7448786e-39
0.094639666 0.70099998 -0.020894472 3.0349e-39
0.095868751 0.70099998 -0.020894472 2.6672021e-39
0.097097836 0.70099998 -0.020894472 1.8378015e-39
0.098326929 0.70099998 -0.020894472 9.1039713e-39
0.099556014 0.70099998 -0.020894472 1.039471e-38
0.10107265 0.70300001 -0.020954086 1.3054323e-38
0.10245077 0.704 -0.020983893 1.3699692e-38
0.10397967 0.70599997 -0.021043506 1.4345409e-38
0.10536657 0.70700002 -0.021073313 1.600493e-38
0.10660617 0.70700002 -0.021073313 1.371836e-38
0.10784578 0.70700002 -0.021073313 1.3257382e-38
0.10923968 0.708 -0.021103119 1.3541156e-38
0.11079313 0.70999998 -0.021162732 1.4463113e-38
0.11203799 0.70999998 -0.021162732 1.4176798e-38
0.11328287 0.70999998 -0.021162732 1.2148494e-38
0.11452773 0.70999998 -0.021162732 1.5354829e-38
0.11593566 0.71100003 -0.021192541 1.5539579e-38
0.11718228 0.71100003 -0.021192541 1.5164698e-38
0.11842891 0.71100003 -0.021192541 1.5902263e-38
0.12001215 0.713 -0.021252153 1.3336652e-38
0.12126229 0.713 -0.021252153 1.0662979e-38
0.12302789 0.71600002 -0.021341572 4.0490295e-39
0.12428328 0.71600002 -0.021341572 7.0914839e-39
0.12518799 0.71399999 -0.021281958 6.4587009e-39
0.12643987 0.71399999 -0.021281958 6.9193189e-39
-0.12098527 0.69700003 -0.02199732 1.3499818e-38
-0.11976318 0.69700003 -0.02199732 1.3316147e-38
-0.11905133 0.69999999 -0.022091998 1.3683489e-38
-0.11782399 0.69999999 -0.022091998 1.3683489e-38
-0.11709637 0.70300001 -0.02218668 1.3683489e-38
-0.11553414 0.70099998 -0.022123558 1.8473683e-38
-0.11430506 0.70099998 -0.022123558 2.0317596e-38
-0.11307596 0.70099998 -0.022123558 2.0867163e-38
-0.11168733 0.69999999 -0.022091998 2.1051195e-38
-0.11046 0.69999999 -0.022091998 2.1510719e-38
-0.10892057 0.69800001 -0.02202888 2.1418165e-38
-0.10738815 0.69599998 -0.021965759 2.2061369e-38
-0.10616783 0.69599998 -0.021965759 2.2061369e-38
-0.10509831 0.69700003 -0.02199732 2.1877697e-38
-0.10387623 0.69700003 -0.02199732 2.1969892e-38
-0.10280143 0.69800001 -0.02202888 2.1695473e-38
-0.10143209 0.69700003 -0.02199732 2.2064256e-38
-0.10021002 0.69700003 -0.02199732 2.1697291e-38
-0.098987937 0.69700003 -0.02199732 2.1697291e-38
-0.09776587 0.69700003 -0.02199732 2.1879887e-38
-0.09668231 0.69800001 -0.02202888 2.1879887e-38
-0.094364397 0.69 -0.021776399 2.1695489e-38
-0.092884585 0.68800002 -0.021713281 2.1603293e-38
-0.091678292 0.68800002 -0.021713281 2.1511448e-38
-0.090340495 0.68699998 -0.021681719 2.1050828e-38
-0.089135952 0.68699998 -0.021681719 1.9399933e-38
-0.087803423 0.68599999 -0.021650158 1.9584683e-38
-0.086348161 0.68400002 -0.02158704 1.8392268e-38
-0.085024394 0.68300003 -0.02155548 1.8392268e-38
-0.08382687 0.68300003 -0.02155548 2.0052531e-38
-0.078750968 0.69099998 -0.021807959 1.5928592e-38
-0.077427194 0.69 -0.021776399 1.7324146e-38
-0.076217398 0.69 -0.021776399 2.3502694e-38
-0.075007595 0.69 -0.021776399 2.3509886e-38
-0.073476933 0.68699998 -0.021681719 2.3509886e-38
-0.07227239 0.68699998 -0.021681719 2.3509886e-38
-0.071067855 0.68699998 -0.021681719 2.3509886e-38
-0.069761619 0.68599999 -0.021650158 2.3509886e-38
-0.068558842 0.68599999 -0.021650158 2.3509886e-38
-0.06152096 0.68800002 -0.021713281 2.0095423e-38
-0.060314666 0.68800002 -0.021713281 2.1110654e-38
-0.059108373 0.68800002 -0.021713281 2.1571273e-38
-0.057902083 0.68800002 -0.021713281 2.0750133e-38
-0.056695789 0.68800002 -0.021713281 2.3234379e-38
-0.055408835 0.68699998 -0.021681719 2.3509886e-38
-0.054204296 0.68699998 -0.021681719 2.3509886e-38
-0.05292261 0.68599999 -0.021650158 2.3509886e-38
-0.051719822 0.68599999 -0.021650158 2.3509886e-38
-0.050590675 0.68699998 -0.021681719 2.3509886e-38
-0.049314249 0.68599999 -0.021650158 2.3507016e-38
-0.048111461 0.68599999 -0.021650158 1.8530931e-38
-0.046977058 0.68699998 -0.021681719 1.7977757e-38
-0.045772515 0.68699998 -0.021681719 1.8892468e-38
-0.044567976 0.68699998 -0.021681719 1.9169055e-38
-0.043426562 0.68800002 -0.021713281 1.8896784e-38
-0.042220265 0.68800002 -0.021713281 1.6130555e-38
-0.041013971 0.68800002 -0.021713281 1.5302272e-38
-0.039807681 0.68800002 -0.021713281 1.6500815e-38
-0.038601387 0.68800002 -0.021713281 1.6500809e-38
-0.037503798 0.69 -0.021776399 1.521007e-38
-0.036293998 0.69 -0.021776399 1.5486625e-38
-0.03498251 0.68800002 -0.021713281 1.5855048e-38
-0.033776212 0.68800002 -0.021713281 1.5488082e-38
-0.032522578 0.68699998 -0.021681719 1.659443e-38
-0.031318039 0.68699998 -0.021681719 1.8620936e-38
-0.030113498 0.68699998 -0.021681719 1.8805327e-38
-0.028908957 0.68699998 -0.021681719 1.6497177e-38
-0.027704418 0.68699998 -0.021681719 1.4929851e-38
-0.026499879 0.68699998 -0.021681719 1.7234351e-38
-0.025295338 0.68699998 -0.021681719 1.4652874e-38
-0.024090799 0.68699998 -0.021681719 1.2063511e-38
-0.022886258 0.68699998 -0.021681719 2.0268563e-38
-0.021713281 0.68800002 -0.021713281 2.1665581e-38
-0.020506985 0.68800002 -0.021713281 2.1942169e-38
-0.019356798 0.69 -0.021776399 2.0367653e-38
-0.0180944 0.68800002 -0.021713281 1.8523741e-38
-0.016888106 0.68800002 -0.021713281 1.7144382e-38
-0.015681813 0.68800002 -0.021713281 1.8527318e-38
-0.014475521 0.68800002 -0.021713281 1.7800551e-38
-0.013269227 0.68800002 -0.021713281 1.595664e-38
-0.012045399 0.68699998 -0.021681719 1.5212594e-38
-0.010840859 0.68699998 -0.021681719 1.4106247e-38
-0.0096363192 0.68699998 -0.021681719 2.1274146e-38
-0.0084317802 0.68699998 -0.021681719 2.3500528e-38
-0.0072272392 0.68699998 -0.021681719 2.3494787e-38
-0.0060226996 0.68699998 -0.021681719 2.1185213e-38
-0.0048181596 0.68699998 -0.021681719 2.3007133e-38
-0.0036188802 0.68800002 -0.021713281 2.346811e-38
-0.0024125867 0.68800002 -0.021713281 2.3475648e-38
-0.0012062934 0.68800002 -0.021713281 2.3481411e-38
0 0.68800002 -0.021713281 2.3490412e-38
0.0012062934 0.68800002 -0.021713281 2.2101714e-38
0.0024090798 0.68699998 -0.021681719 2.3364022e-38
0.0036136196 0.68699998 -0.021681719 2.2442064e-38
0.0048181596 0.68699998 -0.021681719 1.7949652e-38
0.039499093 0.704 -0.022218239 1.9893319e-38
0.040675577 0.70300001 -0.02218668 1.8417829e-38
0.041908171 0.70300001 -0.02218668 1.6858407e-38
0.044436477 0.704 -0.022218239 1.7591315e-38
0.045670826 0.704 -0.022218239 1.5932154e-38
0.046838548 0.70300001 -0.02218668 1.4273001e-38
0.048071139 0.70300001 -0.02218668 1.3996414e-38
0.049303733 0.70300001 -0.02218668 1.3723785e-38
0.050608214 0.704 -0.022218239 1.3078415e-38
0.051842559 0.704 -0.022218239 1.2336557e-38
0.053001512 0.70300001 -0.02218668 1.2705338e-38
0.053848371 0.69800001 -0.02202888 1.4193073e-38
0.0550722 0.69800001 -0.02202888 2.1015189e-38
0.056296028 0.69800001 -0.02202888 2.2121171e-38
0.057107817 0.69300002 -0.021871079 1.981628e-38
0.058322877 0.69300002 -0.021871079 1.9270666e-38
0.05953794 0.69300002 -0.021871079 1.9731643e-38
0.060752999 0.69300002 -0.021871079 1.2896933e-38
0.061968062 0.69300002 -0.021871079 5.2450545e-39
0.063183114 0.69300002 -0.021871079 5.426199e-39
0.064398177 0.69300002 -0.021871079 6.163764e-39
0.065707922 0.69400001 -0.021902639 5.8007451e-39
0.067117594 0.69599998 -0.021965759 5.8929421e-39
0.068337917 0.69599998 -0.021965759 4.5122007e-39
0.069558233 0.69599998 -0.021965759 3.2214619e-39
0.070778556 0.69599998 -0.021965759 1.2230351e-39
0.071998879 0.69599998 -0.021965759 7.8611204e-39
0.073219195 0.69599998 -0.021965759 1.6313604e-38
0.074439511 0.69599998 -0.021965759 1.7328115e-38
0.075659841 0.69599998 -0.021965759 1.6320427e-38
0.076880157 0.69599998 -0.021965759 1.6688851e-38
0.078100473 0.69599998 -0.021965759 1.6872529e-38
0.079320796 0.69599998 -0.021965759 1.6595583e-38
0.080541112 0.69599998 -0.021965759 1.1612331e-38
0.081761435 0.69599998 -0.021965759 6.3571797e-39
0.082981758 0.69599998 -0.021965759 1.4729945e-39
0.084202074 0.69599998 -0.021965759 4.9767872e-39
0.085422389 0.69599998 -0.021965759 5.7276758e-39
0.086767212 0.69700003 -0.02199732 8.216599e-39
0.088115521 0.69800001 -0.02202888 7.7710758e-39
0.089339346 0.69800001 -0.02202888 1.0259999e-38
0.090563171 0.69800001 -0.02202888 1.1333967e-38
0.091787003 0.69800001 -0.02202888 9.1841101e-41
0.093010828 0.69800001 -0.02202888 1.2857026e-39
0.094504662 0.69999999 -0.022091998 2.7597578e-39
0.095731996 0.69999999 -0.022091998 2.4831737e-39
0.09695933 0.69999999 -0.022091998 1.6534131e-39
0.098186664 0.69999999 -0.022091998 8.3671251e-39
0.099413998 0.69999999 -0.022091998 9.7500596e-39
0.1007851 0.70099998 -0.022123558 1.3419863e-38
0.10201418 0.70099998 -0.022123558 1.4065232e-38
0.10353784 0.70300001 -0.02218668 1.5080808e-38
0.10491946 0.704 -0.022218239 1.7385697e-38
0.10615381 0.704 -0.022218239 1.5191712e-38
0.10769323 0.70599997 -0.022281358 1.6575005e-38
0.10908539 0.70700002 -0.022312919 1.4097948e-38
0.11032499 0.70700002 -0.022312919 1.4558568e-38
0.11172239 0.708 -0.022344479 1.4740055e-38
0.11296376 0.708 -0.022344479 1.3725543e-38
0.11420512 0.708 -0.022344479 1.5460351e-38
0.11544648 0.708 -0.022344479 1.3616438e-38
0.11701746 0.70999998 -0.022407599 1.4709134e-38
0.1179292 0.708 -0.022344479 1.5170112e-38
0.11917056 0.708 -0.022344479 1.4350081e-38
0.12075205 0.70999998 -0.022407599 1.1123235e-38
0.12216876 0.71100003 -0.022439159 3.9521549e-39
0.12341537 0.71100003 -0.022439159 7.4559392e-39
0.124662 0.71100003 -0.022439159 6.9142841e-39
0.12626278 0.713 -0.022502279 6.5451414e-39
0.12769175 0.71399999 -0.022533838 8.1139189e-39
