# .PCD v.7 - Point Cloud Data file format
FIELDS x y z rgb imX imY
SIZE 4 4 4 4 4 4
TYPE F F F F F F
COUNT 1 1 1 1 1 1
WIDTH 860
HEIGHT 1
VIEWPOINT 0 0 0 1 0 0 0
POINTS 860
DATA ascii
0.00267208 0.76200002 0.01068832 7.8467249e-39 322 232
0.0040028598 0.76099998 0.010674292 9.2300181e-39 323 232
0.0053371461 0.76099998 0.010674292 1.2447153e-38 324 232
0.0066714329 0.76099998 0.010674292 1.2354956e-38 325 232
0.0080057196 0.76099998 0.010674292 1.0517151e-38 326 232
0.0093522798 0.76200002 0.01068832 1.0148729e-38 327 232
0.01068832 0.76200002 0.01068832 1.2071867e-38 328 232
0.01205592 0.764 0.010716373 1.0227954e-38 329 232
0.013395466 0.764 0.010716373 1.2426959e-38 330 232
0.014735013 0.764 0.010716373 1.2979774e-38 331 232
0.016116638 0.76599997 0.010744425 1.2613865e-38 332 232
0.017459691 0.76599997 0.010744425 1.2798617e-38 333 232
0.018802745 0.76599997 0.010744425 1.2704637e-38 334 232
0.020145798 0.76599997 0.010744425 1.371879e-38 335 232
0.021488851 0.76599997 0.010744425 1.2998159e-38 336 232
0.022831906 0.76599997 0.010744425 1.3551332e-38 337 232
0.024174958 0.76599997 0.010744425 1.2909929e-38 338 232
0.025518013 0.76599997 0.010744425 1.3555298e-38 339 232
0.026861066 0.76599997 0.010744425 1.2822052e-38 340 232
0.028204117 0.76599997 0.010744425 1.3098279e-38 341 232
0.029547172 0.76599997 0.010744425 1.3371979e-38 342 232
0.030890226 0.76599997 0.010744425 1.2265631e-38 343 232
0.032149121 0.764 0.010716373 1.1792403e-38 344 232
0.033401001 0.76200002 0.01068832 1.2530327e-38 345 232
0.034737039 0.76200002 0.01068832 1.428997e-38 346 232
0.036073081 0.76200002 0.01068832 1.4197774e-38 347 232
0.037605491 0.76599997 0.010744425 1.2822067e-38 348 232
-0.056629159 0.76899999 0.0094381925 1.3925894e-38 278 233
-0.055137072 0.76700002 0.0094136465 1.2727351e-38 279 233
-0.053792264 0.76700002 0.0094136465 1.2821346e-38 280 233
-0.052447457 0.76700002 0.0094136465 1.3190127e-38 281 233
-0.051102653 0.76700002 0.0094136465 1.3743285e-38 282 233
-0.049757849 0.76700002 0.0094136465 1.088486e-38 283 233
-0.048349917 0.76599997 0.0094013726 1.0770721e-38 284 233
-0.047006864 0.76599997 0.0094013726 1.436599e-38 285 233
-0.045663811 0.76599997 0.0094013726 1.3464903e-38 286 233
-0.044320758 0.76599997 0.0094013726 1.3833327e-38 287 233
-0.043033812 0.76700002 0.0094136465 1.2084137e-38 288 233
-0.041689005 0.76700002 0.0094136465 8.9494851e-39 289 233
-0.040344197 0.76700002 0.0094136465 9.2278643e-39 290 233
-0.038948543 0.76599997 0.0094013726 1.1717145e-38 291 233
-0.037605491 0.76599997 0.0094013726 1.0510305e-38 292 233
-0.036262438 0.76599997 0.0094013726 7.6518813e-39 293 233
-0.034964975 0.76700002 0.0094136465 1.0410175e-38 294 233
-0.033620168 0.76700002 0.0094136465 1.0594566e-38 295 233
-0.03227536 0.76700002 0.0094136465 1.0960112e-38 296 233
-0.030890226 0.76599997 0.0094013726 1.0499133e-38 297 233
-0.029547172 0.76599997 0.0094013726 8.4823483e-39 298 233
-0.02824094 0.76700002 0.0094136465 1.0418456e-38 299 233
-0.026896132 0.76700002 0.0094136465 1.3360456e-38 300 233
-0.025551327 0.76700002 0.0094136465 1.2069717e-38 301 233
-0.024269639 0.76899999 0.0094381925 9.4961695e-39 302 233
-0.022861714 0.76700002 0.0094136465 1.0326289e-38 303 233
-0.021516906 0.76700002 0.0094136465 9.7741983e-39 304 233
-0.020172099 0.76700002 0.0094136465 8.8526008e-39 305 233
-0.018827293 0.76700002 0.0094136465 7.9339011e-39 306 233
-0.017459691 0.76599997 0.0094013726 9.4093899e-39 307 233
-0.016116638 0.76599997 0.0094013726 1.0606148e-38 308 233
-0.01469644 0.76200002 0.0093522798 9.315409e-39 309 233
-0.0133604 0.76200002 0.0093522798 9.2293146e-39 310 233
-0.01202436 0.76200002 0.0093522798 1.0427499e-38 311 233
-0.01068832 0.76200002 0.0093522798 1.2722682e-38 312 233
-0.0093522798 0.76200002 0.0093522798 1.1339747e-38 313 233
-0.0080583189 0.76599997 0.0094013726 9.410829e-39 314 233
-0.0067152665 0.76599997 0.0094013726 1.024059e-38 315 233
-0.0053581866 0.764 0.0093768267 1.1896498e-38 316 233
-0.0040186401 0.764 0.0093768267 1.0974542e-38 317 233
-0.0026790933 0.764 0.0093768267 8.8598006e-39 318 233
-0.0013395466 0.764 0.0093768267 8.8598006e-39 319 233
0 0.76200002 0.0093522798 1.106854e-38 320 233
0.00133604 0.76200002 0.0093522798 1.1252571e-38 321 233
0.0026685731 0.76099998 0.0093400059 9.9603916e-39 322 233
0.0040028598 0.76099998 0.0093400059 9.8681946e-39 323 233
0.0053371461 0.76099998 0.0093400059 1.1248978e-38 324 233
0.0066714329 0.76099998 0.0093400059 1.1433728e-38 325 233
0.0080057196 0.76099998 0.0093400059 9.2278615e-39 326 233
0.0093400059 0.76099998 0.0093400059 9.7810353e-39 327 233
0.01068832 0.76200002 0.0093522798 1.2622522e-38 328 233
0.01202436 0.76200002 0.0093522798 9.8562948e-39 329 233
0.013395466 0.764 0.0093768267 1.1966704e-38 330 233
0.014735013 0.764 0.0093768267 1.2427323e-38 331 233
0.016116638 0.76599997 0.0094013726 1.142073e-38 332 233
0.017459691 0.76599997 0.0094013726 1.1605481e-38 333 233
0.018802745 0.76599997 0.0094013726 1.169697e-38 334 233
0.020145798 0.76599997 0.0094013726 1.2434535e-38 335 233
0.021488851 0.76599997 0.0094013726 1.1525901e-38 336 233
0.022831906 0.76599997 0.0094013726 1.2078716e-38 337 233
0.024174958 0.76599997 0.0094013726 1.1529864e-38 338 233
0.025518013 0.76599997 0.0094013726 1.2636212e-38 339 233
0.026861066 0.76599997 0.0094013726 1.3097547e-38 340 233
0.028130481 0.764 0.0093768267 1.3373774e-38 341 233
0.029470026 0.764 0.0093768267 1.3187941e-38 342 233
0.030809574 0.764 0.0093768267 1.1897202e-38 343 233
0.032064959 0.76200002 0.0093522798 1.207187e-38 344 233
0.033401001 0.76200002 0.0093522798 1.2440292e-38 345 233
0.034691449 0.76099998 0.0093400059 1.392191e-38 346 233
0.036025736 0.76099998 0.0093400059 1.4014106e-38 347 233
-0.055065181 0.76599997 0.0080583189 1.2820267e-38 279 234
-0.053722132 0.76599997 0.0080583189 1.2730951e-38 280 234
-0.052379075 0.76599997 0.0080583189 1.2730951e-38 281 234
-0.051036026 0.76599997 0.0080583189 1.3650734e-38 282 234
-0.04969297 0.76599997 0.0080583189 1.1714625e-38 283 234
-0.048349917 0.76599997 0.0080583189 1.1237459e-38 284 234
-0.047006864 0.76599997 0.0080583189 1.3173568e-38 285 234
-0.045663811 0.76599997 0.0080583189 1.3462749e-38 286 234
-0.044320758 0.76599997 0.0080583189 1.4200314e-38 287 234
-0.042977702 0.76599997 0.0080583189 1.1439856e-38 288 234
-0.041634649 0.76599997 0.0080583189 8.3052031e-39 289 234
-0.040291596 0.76599997 0.0080583189 9.7799647e-39 290 234
-0.038846854 0.764 0.0080372803 1.1992301e-38 291 234
-0.037507307 0.764 0.0080372803 9.682339e-39 292 234
-0.036262438 0.76599997 0.0080583189 9.0369696e-39 293 234
-0.034919381 0.76599997 0.0080583189 1.1883508e-38 294 234
-0.033576332 0.76599997 0.0080583189 1.1238139e-38 295 234
-0.032233275 0.76599997 0.0080583189 9.4925401e-39 296 234
-0.030890226 0.76599997 0.0080583189 8.4780295e-39 297 234
-0.029547172 0.76599997 0.0080583189 7.7473e-39 298 234
-0.028204117 0.76599997 0.0080583189 9.3149858e-39 299 234
-0.026896132 0.76700002 0.00806884 1.2437778e-38 300 234
-0.025551327 0.76700002 0.00806884 1.3083147e-38 301 234
-0.024269639 0.76899999 0.0080898795 1.1428315e-38 302 234
-0.022861714 0.76700002 0.00806884 1.1336118e-38 303 234
-0.021516906 0.76700002 0.00806884 9.8638758e-39 304 234
-0.020145798 0.76599997 0.0080583189 9.0341151e-39 305 234
-0.01870456 0.76200002 0.0080162399 1.1712473e-38 306 234
-0.01736852 0.76200002 0.0080162399 1.3280159e-38 307 234
-0.016011439 0.76099998 0.0080057196 1.2356405e-38 308 234
-0.014677152 0.76099998 0.0080057196 9.9589581e-39 309 234
-0.013342866 0.76099998 0.0080057196 9.2224749e-39 310 234
-0.012008579 0.76099998 0.0080057196 9.7756487e-39 311 234
-0.010674292 0.76099998 0.0080057196 1.0236624e-38 312 234
-0.0093400059 0.76099998 0.0080057196 9.1302765e-39 313 234
-0.0080057196 0.76099998 0.0080057196 8.6707248e-39 314 234
-0.0066801999 0.76200002 0.0080162399 9.4082899e-39 315 234
-0.0053441599 0.76200002 0.0080162399 1.0053662e-38 316 234
-0.0040081199 0.76200002 0.0080162399 9.1313456e-39 317 234
-0.00267208 0.76200002 0.0080162399 1.1254372e-38 318 234
-0.0013342865 0.76099998 0.0080057196 1.3282676e-38 319 234
0 0.76099998 0.0080057196 1.4015556e-38 320 234
0.0013342865 0.76099998 0.0080057196 1.4015556e-38 321 234
0.0026685731 0.76099998 0.0080057196 1.4196705e-38 322 234
0.0039923396 0.759 0.0079846792 1.152303e-38 323 234
0.0053231199 0.759 0.0079846792 8.488144e-39 324 234
0.0066714329 0.76099998 0.0080057196 9.5026561e-39 325 234
0.0080057196 0.76099998 0.0080057196 8.6754094e-39 326 234
0.0093400059 0.76099998 0.0080057196 7.5694205e-39 327 234
0.010674292 0.76099998 0.0080057196 1.1326393e-38 328 234
0.01202436 0.76200002 0.0080162399 1.0035654e-38 329 234
0.0133604 0.76200002 0.0080162399 1.1325312e-38 330 234
0.014735013 0.764 0.0080372803 1.1049086e-38 331 234
0.016074561 0.764 0.0080372803 1.0041764e-38 332 234
0.017414106 0.764 0.0080372803 1.1055917e-38 333 234
0.018753653 0.764 0.0080372803 1.1421475e-38 334 234
0.020093199 0.764 0.0080372803 1.1421475e-38 335 234
0.021432746 0.764 0.0080372803 8.9476803e-39 336 234
0.022772292 0.764 0.0080372803 8.6710934e-39 337 234
0.024174958 0.76599997 0.0080583189 8.2165892e-39 338 234
0.025451386 0.764 0.0080372803 1.1166489e-38 339 234
0.026790932 0.764 0.0080372803 1.2914248e-38 340 234
0.028130481 0.764 0.0080372803 1.3283029e-38 341 234
0.029470026 0.764 0.0080372803 1.3187944e-38 342 234
0.030728921 0.76200002 0.0080162399 1.1528063e-38 343 234
0.032064959 0.76200002 0.0080162399 1.2072235e-38 344 234
0.033357166 0.76099998 0.0080057196 1.2901996e-38 345 234
0.034691449 0.76099998 0.0080057196 1.4014471e-38 346 234
0.036025736 0.76099998 0.0080057196 1.4014471e-38 347 234
-0.054921411 0.764 0.006697733 1.3373073e-38 279 235
-0.053581864 0.764 0.006697733 1.2821346e-38 280 235
-0.052242316 0.764 0.006697733 1.2913541e-38 281 235
-0.050902773 0.764 0.006697733 1.309936e-38 282 235
-0.049563225 0.764 0.006697733 1.1716426e-38 283 235
-0.048223678 0.764 0.006697733 1.1152454e-38 284 235
-0.046884131 0.764 0.006697733 1.1797822e-38 285 235
-0.045544583 0.764 0.006697733 1.327584e-38 286 235
-0.04420504 0.764 0.006697733 1.3921209e-38 287 235
-0.042865492 0.764 0.006697733 1.0244553e-38 288 235
-0.041525945 0.764 0.006697733 7.386488e-39 289 235
-0.040186398 0.764 0.006697733 9.506619e-39 290 235
-0.038846854 0.764 0.006697733 1.1350532e-38 291 235
-0.037507307 0.764 0.006697733 8.9487368e-39 292 235
-0.036167759 0.764 0.006697733 9.3175194e-39 293 235
-0.034828212 0.764 0.006697733 1.2438479e-38 294 235
-0.033488665 0.764 0.006697733 1.1516881e-38 295 235
-0.032149121 0.764 0.006697733 1.142108e-38 296 235
-0.030809574 0.764 0.006697733 1.0960461e-38 297 235
-0.029470026 0.764 0.006697733 9.400692e-39 298 235
-0.028204117 0.76599997 0.0067152665 9.9538658e-39 299 235
-0.026861066 0.76599997 0.0067152665 1.2245827e-38 300 235
-0.025518013 0.76599997 0.0067152665 1.3536566e-38 301 235
-0.024174958 0.76599997 0.0067152665 1.2159046e-38 302 235
-0.022831906 0.76599997 0.0067152665 1.1882099e-38 303 235
-0.021432746 0.764 0.006697733 9.5916049e-39 304 235
-0.020093199 0.764 0.006697733 9.8685505e-39 305 235
-0.018680012 0.76099998 0.0066714329 1.3372354e-38 306 235
-0.017345725 0.76099998 0.0066714329 1.3648581e-38 307 235
-0.016011439 0.76099998 0.0066714329 1.0055827e-38 308 235
-0.014677152 0.76099998 0.0066714329 9.226065e-39 309 235
-0.0133078 0.759 0.0066538998 1.1062422e-38 310 235
-0.01197702 0.759 0.0066538998 1.1523041e-38 311 235
-0.01064624 0.759 0.0066538998 1.2258429e-38 312 235
-0.0093400059 0.76099998 0.0066714329 1.1428668e-38 313 235
-0.0080057196 0.76099998 0.0066714329 9.0427121e-39 314 235
-0.0066714329 0.76099998 0.0066714329 9.9646684e-39 315 235
-0.0053371461 0.76099998 0.0066714329 1.0511398e-38 316 235
-0.0040028598 0.76099998 0.0066714329 8.4830938e-39 317 235
-0.0026685731 0.76099998 0.0066714329 1.1068908e-38 318 235
-0.00133078 0.759 0.0066538998 1.3650027e-38 319 235
0 0.759 0.0066538998 1.3648937e-38 320 235
0.00133078 0.759 0.0066538998 1.3741133e-38 321 235
0.00266156 0.759 0.0066538998 1.4014471e-38 322 235
0.0039923396 0.759 0.0066538998 1.1433353e-38 323 235
0.0053231199 0.759 0.0066538998 7.6598183e-39 324 235
0.0066538998 0.759 0.0066538998 8.7658071e-39 325 235
0.0079846792 0.759 0.0066538998 8.6732416e-39 326 235
0.00931546 0.759 0.0066538998 7.0140804e-39 327 235
0.010674292 0.76099998 0.0066714329 9.8580983e-39 328 235
0.01202436 0.76200002 0.0066801999 8.6595551e-39 329 235
0.0133604 0.76200002 0.0066801999 9.1180291e-39 330 235
0.01469644 0.76200002 0.0066801999 8.8418009e-39 331 235
0.016074561 0.764 0.006697733 9.9502939e-39 332 235
0.017414106 0.764 0.006697733 1.1886402e-38 333 235
0.018753653 0.764 0.006697733 1.2531774e-38 334 235
0.0200406 0.76200002 0.0066801999 1.2992394e-38 335 235
0.02137664 0.76200002 0.0066801999 1.1435518e-38 336 235
0.02271268 0.76200002 0.0066801999 1.051392e-38 337 235
0.024111839 0.764 0.006697733 9.9607602e-39 338 235
0.025451386 0.764 0.006697733 1.0237706e-38 339 235
0.0267208 0.76200002 0.0066801999 1.0247774e-38 340 235
0.028056841 0.76200002 0.0066801999 1.2368632e-38 341 235
0.029392879 0.76200002 0.0066801999 1.3186865e-38 342 235
0.030728921 0.76200002 0.0066801999 1.0881975e-38 343 235
0.032022879 0.76099998 0.0066714329 1.2349545e-38 344 235
0.033269498 0.759 0.0066538998 1.3548088e-38 345 235
0.034600276 0.759 0.0066538998 1.3372705e-38 346 235
0.035931058 0.759 0.0066538998 1.3280509e-38 347 235
-0.054777641 0.76200002 0.0053441599 1.3649662e-38 279 236
-0.053441599 0.76200002 0.0053441599 1.2637673e-38 280 236
-0.052105557 0.76200002 0.0053441599 1.2637673e-38 281 236
-0.050769519 0.76200002 0.0053441599 1.2639103e-38 282 236
-0.049433477 0.76200002 0.0053441599 1.1993733e-38 283 236
-0.048097439 0.76200002 0.0053441599 1.2259145e-38 284 236
-0.046761397 0.76200002 0.0053441599 1.1245353e-38 285 236
-0.045425359 0.76200002 0.0053441599 1.2628656e-38 286 236
-0.044089317 0.76200002 0.0053441599 1.3734645e-38 287 236
-0.042753279 0.76200002 0.0053441599 1.0243105e-38 288 236
-0.041417241 0.76200002 0.0053441599 8.3995512e-39 289 236
-0.040081199 0.76200002 0.0053441599 1.0243458e-38 290 236
-0.038745161 0.76200002 0.0053441599 1.1534197e-38 291 236
-0.037409119 0.76200002 0.0053441599 1.005401e-38 292 236
-0.036073081 0.76200002 0.0053441599 1.0791933e-38 293 236
-0.034737039 0.76200002 0.0053441599 1.3731734e-38 294 236
-0.033401001 0.76200002 0.0053441599 1.1887822e-38 295 236
-0.032149121 0.764 0.0053581866 1.2614585e-38 296 236
-0.030809574 0.764 0.0053581866 1.2614585e-38 297 236
-0.029470026 0.764 0.0053581866 1.151508e-38 298 236
-0.028130481 0.764 0.0053581866 1.1422885e-38 299 236
-0.026790932 0.764 0.0053581866 1.307053e-38 300 236
-0.025451386 0.764 0.0053581866 1.3254921e-38 301 236
-0.024111839 0.764 0.0053581866 1.2522768e-38 302 236
-0.022772292 0.764 0.0053581866 1.1969594e-38 303 236
-0.02137664 0.76200002 0.0053441599 1.106457e-38 304 236
-0.0200406 0.76200002 0.0053441599 1.3092875e-38 305 236
-0.018680012 0.76099998 0.0053371461 1.4293938e-38 306 236
-0.017345725 0.76099998 0.0053371461 1.318759e-38 307 236
-0.016011439 0.76099998 0.0053371461 9.0441751e-39 308 236
-0.014677152 0.76099998 0.0053371461 8.675394e-39 309 236
-0.0133078 0.759 0.0053231199 1.2445707e-38 310 236
-0.01197702 0.759 0.0053231199 1.3091076e-38 311 236
-0.01064624 0.759 0.0053231199 1.3549533e-38 312 236
-0.0093400059 0.76099998 0.0053371461 1.1890372e-38 313 236
-0.0080057196 0.76099998 0.0053371461 9.0438065e-39 314 236
-0.0066714329 0.76099998 0.0053371461 1.0426741e-38 315 236
-0.0053371461 0.76099998 0.0053371461 1.1340079e-38 316 236
-0.0040028598 0.76099998 0.0053371461 8.666406e-39 317 236
-0.0026685731 0.76099998 0.0053371461 9.8703652e-39 318 236
-0.00133078 0.759 0.0053231199 1.1990865e-38 319 236
0 0.759 0.0053231199 1.2820618e-38 320 236
0.00133078 0.759 0.0053231199 1.2820618e-38 321 236
0.00266156 0.759 0.0053231199 1.2174868e-38 322 236
0.0039923396 0.759 0.0053231199 1.0422791e-38 323 236
0.0053231199 0.759 0.0053231199 9.1331351e-39 324 236
0.0066538998 0.759 0.0053231199 9.4093619e-39 325 236
0.0079846792 0.759 0.0053231199 8.7639798e-39 326 236
0.00931546 0.759 0.0053231199 6.9200672e-39 327 236
0.01064624 0.759 0.0053231199 9.2148756e-39 328 236
0.012008579 0.76099998 0.0053371461 9.2148756e-39 329 236
0.0133604 0.76200002 0.0053441599 9.1201801e-39 330 236
0.01469644 0.76200002 0.0053441599 8.2904194e-39 331 236
0.016074561 0.764 0.0053581866 9.5833064e-39 332 236
0.017414106 0.764 0.0053581866 1.1334665e-38 333 236
0.01870456 0.76200002 0.0053441599 1.3548439e-38 334 236
0.0200406 0.76200002 0.0053441599 1.4747341e-38 335 236
0.021348584 0.76099998 0.0053371461 1.4201018e-38 336 236
0.022682872 0.76099998 0.0053371461 1.3463453e-38 337 236
0.02404872 0.76200002 0.0053441599 1.2814865e-38 338 236
0.02538476 0.76200002 0.0053441599 9.1266793e-39 339 236
0.0267208 0.76200002 0.0053441599 7.7606501e-39 340 236
0.028056841 0.76200002 0.0053441599 1.2001289e-38 341 236
0.029354304 0.76099998 0.0053371461 1.2910635e-38 342 236
0.030688593 0.76099998 0.0053371461 1.0513188e-38 343 236
0.032022879 0.76099998 0.0053371461 1.2811602e-38 344 236
0.033269498 0.759 0.0053231199 1.4102341e-38 345 236
0.034600276 0.759 0.0053231199 1.2912815e-38 346 236
0.035931058 0.759 0.0053231199 1.2820618e-38 347 236
-0.054777641 0.76200002 0.0040081199 1.3926244e-38 279 237
-0.053441599 0.76200002 0.0040081199 1.2361442e-38 280 237
-0.052105557 0.76200002 0.0040081199 1.2453639e-38 281 237
-0.050769519 0.76200002 0.0040081199 1.2363597e-38 282 237
-0.049433477 0.76200002 0.0040081199 1.2178846e-38 283 237
-0.048097439 0.76200002 0.0040081199 1.2631154e-38 284 237
-0.046761397 0.76200002 0.0040081199 1.0510655e-38 285 237
-0.045425359 0.76200002 0.0040081199 1.253429e-38 286 237
-0.044089317 0.76200002 0.0040081199 1.4931376e-38 287 237
-0.042753279 0.76200002 0.0040081199 1.2636584e-38 288 237
-0.041417241 0.76200002 0.0040081199 1.2175246e-38 289 237
-0.040081199 0.76200002 0.0040081199 1.2819887e-38 290 237
-0.038745161 0.76200002 0.0040081199 1.2819887e-38 291 237
-0.037409119 0.76200002 0.0040081199 1.2536455e-38 292 237
-0.036073081 0.76200002 0.0040081199 1.2721205e-38 293 237
-0.034737039 0.76200002 0.0040081199 1.4469299e-38 294 237
-0.033401001 0.76200002 0.0040081199 1.2625388e-38 295 237
-0.032064959 0.76200002 0.0040081199 1.3074843e-38 296 237
-0.030728921 0.76200002 0.0040081199 1.3074843e-38 297 237
-0.029392879 0.76200002 0.0040081199 1.3259591e-38 298 237
-0.028056841 0.76200002 0.0040081199 1.2614221e-38 299 237
-0.0267208 0.76200002 0.0040081199 1.3253824e-38 300 237
-0.02538476 0.76200002 0.0040081199 1.3438215e-38 301 237
-0.02404872 0.76200002 0.0040081199 1.3073771e-38 302 237
-0.02271268 0.76200002 0.0040081199 1.3442552e-38 303 237
-0.02137664 0.76200002 0.0040081199 1.3914004e-38 304 237
-0.0200406 0.76200002 0.0040081199 1.5665719e-38 305 237
-0.01870456 0.76200002 0.0040081199 1.4292863e-38 306 237
-0.01736852 0.76200002 0.0040081199 1.3831884e-38 307 237
-0.016011439 0.76099998 0.0040028598 1.2174868e-38 308 237
-0.014677152 0.76099998 0.0040028598 1.0607183e-38 309 237
-0.0133078 0.759 0.0039923396 1.0332044e-38 310 237
-0.01197702 0.759 0.0039923396 1.0700827e-38 311 237
-0.01064624 0.759 0.0039923396 1.0517881e-38 312 237
-0.0093400059 0.76099998 0.0040028598 8.5817732e-39 313 237
-0.0080057196 0.76099998 0.0040028598 8.3073373e-39 314 237
-0.0066714329 0.76099998 0.0040028598 1.0888814e-38 315 237
-0.0053371461 0.76099998 0.0040028598 1.2723738e-38 316 237
-0.0039923396 0.759 0.0039923396 1.1064218e-38 317 237
-0.00266156 0.759 0.0039923396 8.9473299e-39 318 237
-0.00133078 0.759 0.0039923396 8.8551343e-39 319 237
0 0.75700003 0.0039818203 9.0427654e-39 320 237
0.0013272733 0.75700003 0.0039818203 9.227158e-39 321 237
0.0026545466 0.75700003 0.0039818203 8.2180213e-39 322 237
0.0039818203 0.75700003 0.0039818203 8.8633908e-39 323 237
0.0053231199 0.759 0.0039923396 1.1432634e-38 324 237
0.0066538998 0.759 0.0039923396 9.6809167e-39 325 237
0.0079846792 0.759 0.0039923396 8.4848664e-39 326 237
0.00931546 0.759 0.0039923396 8.577062e-39 327 237
0.01064624 0.759 0.0039923396 1.178627e-38 328 237
0.012008579 0.76099998 0.0040028598 1.1878824e-38 329 237
0.013342866 0.76099998 0.0040028598 1.1325666e-38 330 237
0.01469644 0.76200002 0.0040081199 9.8508956e-39 331 237
0.01603248 0.76200002 0.0040081199 8.9397391e-39 332 237
0.01736852 0.76200002 0.0040081199 1.124427e-38 333 237
0.01870456 0.76200002 0.0040081199 1.3736077e-38 334 237
0.020014299 0.76099998 0.0040028598 1.4658032e-38 335 237
0.021348584 0.76099998 0.0040028598 1.4659844e-38 336 237
0.022682872 0.76099998 0.0040028598 1.4014474e-38 337 237
0.024017159 0.76099998 0.0040028598 1.2724814e-38 338 237
0.025351444 0.76099998 0.0040028598 8.6682067e-39 339 237
0.026685731 0.76099998 0.0040028598 8.0321895e-39 340 237
0.028020019 0.76099998 0.0040028598 1.264233e-38 341 237
0.029354304 0.76099998 0.0040028598 1.281699e-38 342 237
0.030688593 0.76099998 0.0040028598 1.0419904e-38 343 237
0.031938717 0.759 0.0039923396 1.3364771e-38 344 237
0.033269498 0.759 0.0039923396 1.4655508e-38 345 237
0.034600276 0.759 0.0039923396 1.2268525e-38 346 237
0.035931058 0.759 0.0039923396 1.254511e-38 347 237
-0.05470575 0.76099998 0.0026685731 1.4110636e-38 279 238
-0.053371463 0.76099998 0.0026685731 1.2637306e-38 280 238
-0.052037176 0.76099998 0.0026685731 1.254511e-38 281 238
-0.050769519 0.76200002 0.00267208 1.2453994e-38 282 238
-0.049433477 0.76200002 0.00267208 1.2822418e-38 283 238
-0.048097439 0.76200002 0.00267208 1.3187565e-38 284 238
-0.046761397 0.76200002 0.00267208 1.0329861e-38 285 238
-0.045425359 0.76200002 0.00267208 1.2072588e-38 286 238
-0.044089317 0.76200002 0.00267208 1.502285e-38 287 238
-0.042753279 0.76200002 0.00267208 1.3925879e-38 288 238
-0.041362885 0.76099998 0.0026685731 1.3833683e-38 289 238
-0.040028598 0.76099998 0.0026685731 1.3463806e-38 290 238
-0.038694311 0.76099998 0.0026685731 1.2634044e-38 291 238
-0.037360024 0.76099998 0.0026685731 1.3455157e-38 292 238
-0.036025736 0.76099998 0.0026685731 1.3547353e-38 293 238
-0.034691449 0.76099998 0.0026685731 1.4191275e-38 294 238
-0.033401001 0.76200002 0.00267208 1.3638101e-38 295 238
-0.032064959 0.76200002 0.00267208 1.3445418e-38 296 238
-0.030728921 0.76200002 0.00267208 1.2431626e-38 297 238
-0.029392879 0.76200002 0.00267208 1.3440368e-38 298 238
-0.028056841 0.76200002 0.00267208 1.3255975e-38 299 238
-0.0267208 0.76200002 0.00267208 1.3714082e-38 300 238
-0.02538476 0.76200002 0.00267208 1.3714082e-38 301 238
-0.02404872 0.76200002 0.00267208 1.3256368e-38 302 238
-0.02271268 0.76200002 0.00267208 1.4177964e-38 303 238
-0.021348584 0.76099998 0.0026685731 1.4464304e-38 304 238
-0.020014299 0.76099998 0.0026685731 1.6031628e-38 305 238
-0.018680012 0.76099998 0.0026685731 1.4475112e-38 306 238
-0.017345725 0.76099998 0.0026685731 1.4382557e-38 307 238
-0.015969358 0.759 0.00266156 1.4108472e-38 308 238
-0.014638579 0.759 0.00266156 1.3002124e-38 309 238
-0.0133078 0.759 0.00266156 1.0702271e-38 310 238
-0.01197702 0.759 0.00266156 1.0425684e-38 311 238
-0.01064624 0.759 0.00266156 1.0058347e-38 312 238
-0.0093400059 0.76099998 0.0026685731 8.3988267e-39 313 238
-0.0080057196 0.76099998 0.0026685731 8.4006175e-39 314 238
-0.0066714329 0.76099998 0.0026685731 1.1443433e-38 315 238
-0.0053231199 0.759 0.00266156 1.3647499e-38 316 238
-0.0039923396 0.759 0.00266156 1.3186161e-38 317 238
-0.00266156 0.759 0.00266156 1.0606132e-38 318 238
-0.00133078 0.759 0.00266156 8.0246548e-39 319 238
0 0.75700003 0.0026545466 7.935329e-39 320 238
0.0013272733 0.75700003 0.0026545466 8.2119173e-39 321 238
0.0026545466 0.75700003 0.0026545466 9.3153782e-39 322 238
0.0039818203 0.75700003 0.0026545466 1.0974539e-38 323 238
0.0053090933 0.75700003 0.0026545466 1.272157e-38 324 238
0.0066363667 0.75700003 0.0026545466 1.0140093e-38 325 238
0.0079636406 0.75700003 0.0026545466 9.9520707e-39 326 238
0.0092909131 0.75700003 0.0026545466 1.0228658e-38 327 238
0.01064624 0.759 0.00266156 1.2336559e-38 328 238
0.01197702 0.759 0.00266156 1.1875581e-38 329 238
0.0133078 0.759 0.00266156 1.1598654e-38 330 238
0.014638579 0.759 0.00266156 1.1138034e-38 331 238
0.016011439 0.76099998 0.0026685731 9.6773167e-39 332 238
0.017345725 0.76099998 0.0026685731 1.1521229e-38 333 238
0.018680012 0.76099998 0.0026685731 1.3368036e-38 334 238
0.020014299 0.76099998 0.0026685731 1.4381827e-38 335 238
0.02129248 0.759 0.00266156 1.419959e-38 336 238
0.02262326 0.759 0.00266156 1.3185439e-38 337 238
0.023954039 0.759 0.00266156 1.1530212e-38 338 238
0.025284819 0.759 0.00266156 9.1334854e-39 339 238
0.026615599 0.759 0.00266156 9.5948279e-39 340 238
0.027946379 0.759 0.00266156 1.2821675e-38 341 238
0.029277159 0.759 0.00266156 1.2446057e-38 342 238
0.030607941 0.759 0.00266156 1.0694699e-38 343 238
0.031938717 0.759 0.00266156 1.3091058e-38 344 238
0.033269498 0.759 0.00266156 1.4289601e-38 345 238
0.034600276 0.759 0.00266156 1.2268881e-38 346 238
0.035931058 0.759 0.00266156 1.2821696e-38 347 238
-0.05470575 0.76099998 0.0013342865 1.4202834e-38 279 239
-0.053371463 0.76099998 0.0013342865 1.3005014e-38 280 239
-0.052037176 0.76099998 0.0013342865 1.2544036e-38 281 239
-0.050702889 0.76099998 0.0013342865 1.2454358e-38 282 239
-0.049368605 0.76099998 0.0013342865 1.2638749e-38 283 239
-0.048034318 0.76099998 0.0013342865 1.3281213e-38 284 239
-0.046700031 0.76099998 0.0013342865 1.1160353e-38 285 239
-0.045365743 0.76099998 0.0013342865 1.1889639e-38 286 239
-0.044031456 0.76099998 0.0013342865 1.3272574e-38 287 239
-0.042697169 0.76099998 0.0013342865 1.3188311e-38 288 239
-0.041362885 0.76099998 0.0013342865 1.3925876e-38 289 239
-0.040028598 0.76099998 0.0013342865 1.2081237e-38 290 239
-0.038694311 0.76099998 0.0013342865 1.1251835e-38 291 239
-0.037360024 0.76099998 0.0013342865 1.3914707e-38 292 239
-0.036025736 0.76099998 0.0013342865 1.3638119e-38 293 239
-0.034691449 0.76099998 0.0013342865 1.2252298e-38 294 239
-0.033357166 0.76099998 0.0013342865 1.3819264e-38 295 239
-0.032022879 0.76099998 0.0013342865 1.3724534e-38 296 239
-0.030728921 0.76200002 0.00133604 1.2249046e-38 297 239
-0.029392879 0.76200002 0.00133604 1.3071231e-38 298 239
-0.028056841 0.76200002 0.00133604 1.3255622e-38 299 239
-0.0267208 0.76200002 0.00133604 1.362296e-38 300 239
-0.02538476 0.76200002 0.00133604 1.362296e-38 301 239
-0.02404872 0.76200002 0.00133604 1.3439664e-38 302 239
-0.02271268 0.76200002 0.00133604 1.3992837e-38 303 239
-0.021348584 0.76099998 0.0013342865 1.2709327e-38 304 239
-0.020014299 0.76099998 0.0013342865 1.4276652e-38 305 239
-0.018680012 0.76099998 0.0013342865 1.3550629e-38 306 239
-0.017345725 0.76099998 0.0013342865 1.438039e-38 307 239
-0.015969358 0.759 0.00133078 1.4109191e-38 308 239
-0.014638579 0.759 0.00133078 1.4109191e-38 309 239
-0.0133078 0.759 0.00133078 1.3650012e-38 310 239
-0.01197702 0.759 0.00133078 1.3650012e-38 311 239
-0.01064624 0.759 0.00133078 1.3557462e-38 312 239
-0.0093400059 0.76099998 0.0013342865 1.2912451e-38 313 239
-0.0080057196 0.76099998 0.0013342865 1.2270319e-38 314 239
-0.0066538998 0.759 0.00133078 1.2731298e-38 315 239
-0.0053231199 0.759 0.00133078 1.3281957e-38 316 239
-0.0039923396 0.759 0.00133078 1.3558185e-38 317 239
-0.00266156 0.759 0.00133078 1.3648932e-38 318 239
-0.00133078 0.759 0.00133078 1.3095758e-38 319 239
0 0.75700003 0.0013272733 1.3186859e-38 320 239
0.0013237667 0.755 0.0013237667 1.254149e-38 321 239
0.0026475333 0.755 0.0013237667 1.36374e-38 322 239
0.0039818203 0.75700003 0.0013272733 1.2992031e-38 323 239
0.0053090933 0.75700003 0.0013272733 1.290018e-38 324 239
0.0066363667 0.75700003 0.0013272733 1.1609441e-38 325 239
0.0079425992 0.755 0.0013237667 1.1788774e-38 326 239
0.0092663663 0.755 0.0013237667 1.1696578e-38 327 239
0.010618187 0.75700003 0.0013272733 1.2517707e-38 328 239
0.01194546 0.75700003 0.0013272733 1.2148926e-38 329 239
0.013272733 0.75700003 0.0013272733 1.1138388e-38 330 239
0.014600007 0.75700003 0.0013272733 1.1414976e-38 331 239
0.015969358 0.759 0.00133078 1.1430466e-38 332 239
0.017300138 0.759 0.00133078 1.179889e-38 333 239
0.01863092 0.759 0.00133078 1.0509251e-38 334 239
0.0199617 0.759 0.00133078 1.0416696e-38 335 239
0.02129248 0.759 0.00133078 9.8664094e-39 336 239
0.02262326 0.759 0.00133078 8.8526176e-39 337 239
0.023954039 0.759 0.00133078 7.2996622e-39 338 239
0.025284819 0.759 0.00133078 9.2357704e-39 339 239
0.026615599 0.759 0.00133078 1.2541142e-38 340 239
0.027946379 0.759 0.00133078 1.281773e-38 341 239
0.029277159 0.759 0.00133078 1.2627584e-38 342 239
0.030607941 0.759 0.00133078 1.2166246e-38 343 239
0.031938717 0.759 0.00133078 1.3185793e-38 344 239
0.033269498 0.759 0.00133078 1.3646771e-38 345 239
0.034600276 0.759 0.00133078 1.2636587e-38 346 239
-0.05470575 0.76099998 -0 1.4570898e-38 279 240
-0.053371463 0.76099998 -0 1.3373073e-38 280 240
-0.052037176 0.76099998 -0 1.2912095e-38 281 240
-0.050702889 0.76099998 -0 1.3005011e-38 282 240
-0.049368605 0.76099998 -0 1.3097207e-38 283 240
-0.048034318 0.76099998 -0 1.3465254e-38 284 240
-0.046700031 0.76099998 -0 1.2727688e-38 285 240
-0.045365743 0.76099998 -0 1.2165134e-38 286 240
-0.044031456 0.76099998 -0 1.1888908e-38 287 240
-0.042697169 0.76099998 -0 1.2909186e-38 288 240
-0.041362885 0.76099998 -0 1.4476513e-38 289 240
-0.040028598 0.76099998 -0 1.2357464e-38 290 240
-0.038694311 0.76099998 -0 1.0881975e-38 291 240
-0.037360024 0.76099998 -0 1.3548086e-38 292 240
-0.035931058 0.759 -0 1.3087108e-38 293 240
-0.034600276 0.759 -0 1.2619651e-38 294 240
-0.033357166 0.76099998 -0 1.3449413e-38 295 240
-0.032022879 0.76099998 -0 1.3818545e-38 296 240
-0.030688593 0.76099998 -0 1.3173175e-38 297 240
-0.029354304 0.76099998 -0 1.3076999e-38 298 240
-0.028020019 0.76099998 -0 1.2984443e-38 299 240
-0.026685731 0.76099998 -0 1.3718032e-38 300 240
-0.025351444 0.76099998 -0 1.3256694e-38 301 240
-0.024017159 0.76099998 -0 1.3715528e-38 302 240
-0.022682872 0.76099998 -0 1.3531136e-38 303 240
-0.021348584 0.76099998 -0 1.2609552e-38 304 240
-0.020014299 0.76099998 -0 1.2793945e-38 305 240
-0.018680012 0.76099998 -0 1.2987712e-38 306 240
-0.017345725 0.76099998 -0 1.4370646e-38 307 240
-0.015969358 0.759 -0 1.4286745e-38 308 240
-0.014638579 0.759 -0 1.5116866e-38 309 240
-0.0133078 0.759 -0 1.4843516e-38 310 240
-0.01197702 0.759 -0 1.5120102e-38 311 240
-0.01064624 0.759 -0 1.4661294e-38 312 240
-0.00931546 0.759 -0 1.4292513e-38 313 240
-0.0079846792 0.759 -0 1.3557832e-38 314 240
-0.0066538998 0.759 -0 1.3465636e-38 315 240
-0.0053231199 0.759 -0 1.4291431e-38 316 240
-0.0039923396 0.759 -0 1.4383985e-38 317 240
-0.00266156 0.759 -0 1.5027172e-38 318 240
-0.00133078 0.759 -0 1.5027172e-38 319 240
0 0.75700003 -0 1.5481288e-38 320 240
0.0013237667 0.755 -0 1.4559331e-38 321 240
0.0026475333 0.755 -0 1.4184785e-38 322 240
0.0039818203 0.75700003 -0 1.344722e-38 323 240
0.0053090933 0.75700003 -0 1.3628367e-38 324 240
0.0066188332 0.755 -0 1.2982998e-38 325 240
0.00793208 0.75400001 -0 1.3163073e-38 326 240
0.0092540924 0.75400001 -0 1.26099e-38 327 240
0.010590133 0.755 -0 1.2790698e-38 328 240
0.011913899 0.755 -0 1.2422274e-38 329 240
0.013237666 0.755 -0 1.1322793e-38 330 240
0.014600007 0.75700003 -0 1.2521336e-38 331 240
0.015927281 0.75700003 -0 1.2446428e-38 332 240
0.017254554 0.75700003 -0 1.2723017e-38 333 240
0.018581826 0.75700003 -0 1.0144426e-38 334 240
0.019909101 0.75700003 -0 8.9458824e-39 335 240
0.021236373 0.75700003 -0 8.9480502e-39 336 240
0.022563647 0.75700003 -0 9.1328002e-39 337 240
0.02389092 0.75700003 -0 8.7694099e-39 338 240
0.025218192 0.75700003 -0 1.171931e-38 339 240
0.026545467 0.75700003 -0 1.4014474e-38 340 240
0.027872739 0.75700003 -0 1.2078366e-38 341 240
0.029277159 0.759 -0 1.2351709e-38 342 240
0.030607941 0.759 -0 1.3274025e-38 343 240
0.031854562 0.75700003 -0 1.291065e-38 344 240
0.033181835 0.75700003 -0 1.3002846e-38 345 240
0.034600276 0.759 -0 1.272915e-38 346 240
-0.05470575 0.76099998 -0.0013342865 1.4387227e-38 279 241
-0.053371463 0.76099998 -0.0013342865 1.4201036e-38 280 241
-0.052037176 0.76099998 -0.0013342865 1.3740058e-38 281 241
-0.050702889 0.76099998 -0.0013342865 1.3096488e-38 282 241
-0.049368605 0.76099998 -0.0013342865 1.3096488e-38 283 241
-0.048034318 0.76099998 -0.0013342865 1.2821696e-38 284 241
-0.046700031 0.76099998 -0.0013342865 1.291425e-38 285 241
-0.045365743 0.76099998 -0.0013342865 1.3367275e-38 286 241
-0.044031456 0.76099998 -0.0013342865 1.0877993e-38 287 241
-0.042697169 0.76099998 -0.0013342865 1.2629354e-38 288 241
-0.041254178 0.759 -0.00133078 1.4565462e-38 289 241
-0.0399234 0.759 -0.00133078 1.3645695e-38 290 241
-0.038592618 0.759 -0.00133078 1.2539707e-38 291 241
-0.03726184 0.759 -0.00133078 1.2903795e-38 292 241
-0.035931058 0.759 -0.00133078 1.2535011e-38 293 241
-0.034600276 0.759 -0.00133078 1.308098e-38 294 241
-0.033357166 0.76099998 -0.0013342865 1.3265371e-38 295 241
-0.032022879 0.76099998 -0.0013342865 1.3450838e-38 296 241
-0.030688593 0.76099998 -0.0013342865 1.4188403e-38 297 241
-0.029354304 0.76099998 -0.0013342865 1.3545905e-38 298 241
-0.028020019 0.76099998 -0.0013342865 1.2992731e-38 299 241
-0.026685731 0.76099998 -0.0013342865 1.3539053e-38 300 241
-0.025351444 0.76099998 -0.0013342865 1.2708932e-38 301 241
-0.024017159 0.76099998 -0.0013342865 1.334962e-38 302 241
-0.022682872 0.76099998 -0.0013342865 1.3257424e-38 303 241
-0.021348584 0.76099998 -0.0013342865 1.362118e-38 304 241
-0.020014299 0.76099998 -0.0013342865 1.3344953e-38 305 241
-0.018680012 0.76099998 -0.0013342865 1.2886146e-38 306 241
-0.017345725 0.76099998 -0.0013342865 1.3346764e-38 307 241
-0.015969358 0.759 -0.00133078 1.2430941e-38 308 241
-0.014638579 0.759 -0.00133078 1.3352897e-38 309 241
-0.0133078 0.759 -0.00133078 1.2717254e-38 310 241
-0.01197702 0.759 -0.00133078 1.3454819e-38 311 241
-0.01064624 0.759 -0.00133078 1.2630468e-38 312 241
-0.00931546 0.759 -0.00133078 1.2538271e-38 313 241
-0.0079846792 0.759 -0.00133078 1.189794e-38 314 241
-0.0066363667 0.75700003 -0.0013272733 1.2451474e-38 315 241
-0.0052950666 0.755 -0.0013237667 1.3735001e-38 316 241
-0.0039712996 0.755 -0.0013237667 1.2997434e-38 317 241
-0.0026475333 0.755 -0.0013237667 1.3266796e-38 318 241
-0.0013272733 0.75700003 -0.0013272733 1.1976057e-38 319 241
0 0.755 -0.0013237667 1.3251309e-38 320 241
0.0013237667 0.755 -0.0013237667 1.3620093e-38 321 241
0.0026475333 0.755 -0.0013237667 1.3167026e-38 322 241
0.0039712996 0.755 -0.0013237667 1.37202e-38 323 241
0.0052950666 0.755 -0.0013237667 1.3531866e-38 324 241
0.0066188332 0.755 -0.0013237667 1.3162723e-38 325 241
0.00793208 0.75400001 -0.0013220133 1.3159839e-38 326 241
0.0092540924 0.75400001 -0.0013220133 1.2698501e-38 327 241
0.010590133 0.755 -0.0013237667 1.2420123e-38 328 241
0.011913899 0.755 -0.0013237667 1.3065492e-38 329 241
0.013237666 0.755 -0.0013237667 1.2529974e-38 330 241
0.014561433 0.755 -0.0013237667 1.4373886e-38 331 241
0.015885198 0.755 -0.0013237667 1.3187237e-38 332 241
0.017208965 0.755 -0.0013237667 1.337127e-38 333 241
0.018532733 0.755 -0.0013237667 1.3095763e-38 334 241
0.0198565 0.755 -0.0013237667 1.318796e-38 335 241
0.021180267 0.755 -0.0013237667 1.3096841e-38 336 241
0.022504034 0.755 -0.0013237667 1.3465622e-38 337 241
0.02389092 0.75700003 -0.0013272733 1.3833327e-38 338 241
0.025218192 0.75700003 -0.0013272733 1.3833327e-38 339 241
0.026545467 0.75700003 -0.0013272733 1.2908111e-38 340 241
0.027872739 0.75700003 -0.0013272733 1.0972003e-38 341 241
0.029200014 0.75700003 -0.0013272733 1.3181824e-38 342 241
0.030527288 0.75700003 -0.0013272733 1.4380367e-38 343 241
0.031854562 0.75700003 -0.0013272733 1.2544392e-38 344 241
0.033181835 0.75700003 -0.0013272733 1.2636587e-38 345 241
0.034600276 0.759 -0.00133078 1.2820269e-38 346 241
-0.053231198 0.759 -0.00266156 1.4385427e-38 280 242
-0.051900417 0.759 -0.00266156 1.3924809e-38 281 242
-0.050702889 0.76099998 -0.0026685731 1.3097209e-38 282 242
-0.049368605 0.76099998 -0.0026685731 1.3097209e-38 283 242
-0.048034318 0.76099998 -0.0026685731 1.3005011e-38 284 242
-0.046700031 0.76099998 -0.0026685731 1.3189761e-38 285 242
-0.045365743 0.76099998 -0.0026685731 1.3553834e-38 286 242
-0.044031456 0.76099998 -0.0026685731 1.1617726e-38 287 242
-0.042584959 0.759 -0.00266156 1.2258776e-38 288 242
-0.041254178 0.759 -0.00266156 1.3918296e-38 289 242
-0.0399234 0.759 -0.00266156 1.3830446e-38 290 242
-0.038592618 0.759 -0.00266156 1.3645695e-38 291 242
-0.03726184 0.759 -0.00266156 1.3827193e-38 292 242
-0.035931058 0.759 -0.00266156 1.28134e-38 293 242
-0.034600276 0.759 -0.00266156 1.3450836e-38 294 242
-0.033269498 0.759 -0.00266156 1.335864e-38 295 242
-0.031938717 0.759 -0.00266156 1.335864e-38 296 242
-0.030607941 0.759 -0.00266156 1.4188401e-38 297 242
-0.029354304 0.76099998 -0.0026685731 1.3362237e-38 298 242
-0.028020019 0.76099998 -0.0026685731 1.3177844e-38 299 242
-0.026685731 0.76099998 -0.0026685731 1.345334e-38 300 242
-0.025351444 0.76099998 -0.0026685731 1.3084198e-38 301 242
-0.024017159 0.76099998 -0.0026685731 1.3259938e-38 302 242
-0.022682872 0.76099998 -0.0026685731 1.2430177e-38 303 242
-0.021348584 0.76099998 -0.0026685731 1.3621886e-38 304 242
-0.020014299 0.76099998 -0.0026685731 1.3253105e-38 305 242
-0.018680012 0.76099998 -0.0026685731 1.3252752e-38 306 242
-0.017345725 0.76099998 -0.0026685731 1.2792133e-38 307 242
-0.015969358 0.759 -0.00266156 1.2146054e-38 308 242
-0.014638579 0.759 -0.00266156 1.2607032e-38 309 242
-0.0133078 0.759 -0.00266156 1.2520972e-38 310 242
-0.01197702 0.759 -0.00266156 1.2705364e-38 311 242
-0.01064624 0.759 -0.00266156 1.2154724e-38 312 242
-0.0092909131 0.75700003 -0.0026545466 1.2154724e-38 313 242
-0.0079636406 0.75700003 -0.0026545466 1.2066126e-38 314 242
-0.0066363667 0.75700003 -0.0026545466 1.2988081e-38 315 242
-0.0052950666 0.755 -0.0026475333 1.3812777e-38 316 242
-0.0039712996 0.755 -0.0026475333 1.3259605e-38 317 242
-0.0026475333 0.755 -0.0026475333 1.3071584e-38 318 242
-0.0013237667 0.755 -0.0026475333 1.1965236e-38 319 242
0 0.755 -0.0026475333 1.3065823e-38 320 242
0.0013237667 0.755 -0.0026475333 1.3987779e-38 321 242
0.0026475333 0.755 -0.0026475333 1.3535083e-38 322 242
0.0039712996 0.755 -0.0026475333 1.3535083e-38 323 242
0.0052950666 0.755 -0.0026475333 1.3437865e-38 324 242
0.0066100666 0.75400001 -0.0026440267 1.2608104e-38 325 242
0.00793208 0.75400001 -0.0026440267 1.2789978e-38 326 242
0.0092540924 0.75400001 -0.0026440267 1.3250956e-38 327 242
0.010576107 0.75400001 -0.0026440267 1.224653e-38 328 242
0.01189812 0.75400001 -0.0026440267 1.3537269e-38 329 242
0.013237666 0.755 -0.0026475333 1.2355309e-38 330 242
0.014561433 0.755 -0.0026475333 1.3461656e-38 331 242
0.015885198 0.755 -0.0026475333 1.2544755e-38 332 242
0.017208965 0.755 -0.0026475333 1.2544755e-38 333 242
0.018532733 0.755 -0.0026475333 1.2820623e-38 334 242
0.0198565 0.755 -0.0026475333 1.3005014e-38 335 242
0.021180267 0.755 -0.0026475333 1.3189758e-38 336 242
0.022504034 0.755 -0.0026475333 1.3558182e-38 337 242
0.023827799 0.755 -0.0026475333 1.392516e-38 338 242
0.025151566 0.755 -0.0026475333 1.2450028e-38 339 242
0.026475333 0.755 -0.0026475333 1.2812672e-38 340 242
0.027799098 0.755 -0.0026475333 1.2351693e-38 341 242
0.029122867 0.755 -0.0026475333 1.3184341e-38 342 242
0.030527288 0.75700003 -0.0026545466 1.4106657e-38 343 242
0.031854562 0.75700003 -0.0026545466 1.2636237e-38 344 242
0.033181835 0.75700003 -0.0026545466 1.2636237e-38 345 242
-0.053231198 0.759 -0.0039923396 1.4477623e-38 280 243
-0.051900417 0.759 -0.0039923396 1.3924809e-38 281 243
-0.050569639 0.759 -0.0039923396 1.3189761e-38 282 243
-0.049238857 0.759 -0.0039923396 1.3097207e-38 283 243
-0.047908079 0.759 -0.0039923396 1.2821699e-38 284 243
-0.046577301 0.759 -0.0039923396 1.2821699e-38 285 243
-0.045246519 0.759 -0.0039923396 1.364785e-38 286 243
-0.043915741 0.759 -0.0039923396 1.2910285e-38 287 243
-0.042584959 0.759 -0.0039923396 1.2812318e-38 288 243
-0.041145474 0.75700003 -0.0039818203 1.235134e-38 289 243
-0.039818201 0.75700003 -0.0039818203 1.3552407e-38 290 243
-0.038592618 0.759 -0.0039923396 1.4474364e-38 291 243
-0.037163652 0.75700003 -0.0039818203 1.4564042e-38 292 243
-0.03583638 0.75700003 -0.0039818203 1.3181108e-38 293 243
-0.034509107 0.75700003 -0.0039818203 1.3545905e-38 294 243
-0.033181835 0.75700003 -0.0039818203 1.3084927e-38 295 243
-0.031854562 0.75700003 -0.0039818203 1.3083145e-38 296 243
-0.030527288 0.75700003 -0.0039818203 1.4281688e-38 297 243
-0.029277159 0.759 -0.0039923396 1.3547012e-38 298 243
-0.027946379 0.759 -0.0039923396 1.317859e-38 299 243
-0.026615599 0.759 -0.0039923396 1.3732477e-38 300 243
-0.025284819 0.759 -0.0039923396 1.410162e-38 301 243
-0.024017159 0.76099998 -0.0040028598 1.3358987e-38 302 243
-0.022682872 0.76099998 -0.0040028598 1.1238487e-38 303 243
-0.021348584 0.76099998 -0.0040028598 1.2703152e-38 304 243
-0.020014299 0.76099998 -0.0040028598 1.2703152e-38 305 243
-0.018680012 0.76099998 -0.0040028598 1.3344218e-38 306 243
-0.017345725 0.76099998 -0.0040028598 1.3160187e-38 307 243
-0.015969358 0.759 -0.0039923396 1.3249884e-38 308 243
-0.014600007 0.75700003 -0.0039818203 1.2973295e-38 309 243
-0.013272733 0.75700003 -0.0039818203 1.2237177e-38 310 243
-0.01194546 0.75700003 -0.0039818203 1.1776198e-38 311 243
-0.010618187 0.75700003 -0.0039818203 1.1957343e-38 312 243
-0.0092909131 0.75700003 -0.0039818203 1.223429e-38 313 243
-0.0079636406 0.75700003 -0.0039818203 1.260523e-38 314 243
-0.0066188332 0.755 -0.0039712996 1.32506e-38 315 243
-0.0052950666 0.755 -0.0039712996 1.352465e-38 316 243
-0.0039712996 0.755 -0.0039712996 1.2879281e-38 317 243
-0.0026475333 0.755 -0.0039712996 1.2879281e-38 318 243
-0.0013237667 0.755 -0.0039712996 1.3432453e-38 319 243
0 0.755 -0.0039712996 1.3803761e-38 320 243
0.0013237667 0.755 -0.0039712996 1.444913e-38 321 243
0.0026440267 0.75400001 -0.00396604 1.3625837e-38 322 243
0.00396604 0.75400001 -0.00396604 1.3256694e-38 323 243
0.0052880533 0.75400001 -0.00396604 1.2517341e-38 324 243
0.0066100666 0.75400001 -0.00396604 1.1687222e-38 325 243
0.00793208 0.75400001 -0.00396604 1.123095e-38 326 243
0.0092540924 0.75400001 -0.00396604 1.3628395e-38 327 243
0.010576107 0.75400001 -0.00396604 1.2537905e-38 328 243
0.01189812 0.75400001 -0.00396604 1.3828644e-38 329 243
0.013220133 0.75400001 -0.00396604 1.3005364e-38 330 243
0.014561433 0.755 -0.0039712996 1.2820972e-38 331 243
0.015885198 0.755 -0.0039712996 1.2085932e-38 332 243
0.017186172 0.75400001 -0.00396604 1.2269963e-38 333 243
0.018508185 0.75400001 -0.00396604 1.2544755e-38 334 243
0.0198565 0.755 -0.0039712996 1.2729506e-38 335 243
0.021180267 0.755 -0.0039712996 1.2820618e-38 336 243
0.022504034 0.755 -0.0039712996 1.3097207e-38 337 243
0.023827799 0.755 -0.0039712996 1.3646415e-38 338 243
0.025151566 0.755 -0.0039712996 1.0604318e-38 339 243
0.026475333 0.755 -0.0039712996 1.2712217e-38 340 243
0.027799098 0.755 -0.0039712996 1.4924912e-38 341 243
0.029122867 0.755 -0.0039712996 1.3370903e-38 342 243
0.030446632 0.755 -0.0039712996 1.34631e-38 343 243
0.031770397 0.755 -0.0039712996 1.2544401e-38 344 243
0.033181835 0.75700003 -0.0039818203 1.2636957e-38 345 243
-0.053231198 0.759 -0.0053231199 1.4386502e-38 280 244
-0.051900417 0.759 -0.0053231199 1.4017721e-38 281 244
-0.050569639 0.759 -0.0053231199 1.3557465e-38 282 244
-0.049238857 0.759 -0.0053231199 1.3280878e-38 283 244
-0.047908079 0.759 -0.0053231199 1.3005011e-38 284 244
-0.046577301 0.759 -0.0053231199 1.3005011e-38 285 244
-0.045246519 0.759 -0.0053231199 1.3280156e-38 286 244
-0.043915741 0.759 -0.0053231199 1.318796e-38 287 244
-0.042584959 0.759 -0.0053231199 1.2906682e-38 288 244
-0.041145474 0.75700003 -0.0053090933 1.1708139e-38 289 244
-0.039818201 0.75700003 -0.0053090933 1.3179662e-38 290 244
-0.038490929 0.75700003 -0.0053090933 1.3917227e-38 291 244
-0.037163652 0.75700003 -0.0053090933 1.3820362e-38 292 244
-0.035741698 0.755 -0.0052950666 1.4096949e-38 293 244
-0.034417931 0.755 -0.0052950666 1.4562944e-38 294 244
-0.033094164 0.755 -0.0052950666 1.3180009e-38 295 244
-0.031770397 0.755 -0.0052950666 1.2806916e-38 296 244
-0.030446632 0.755 -0.0052950666 1.3728514e-38 297 244
-0.029200014 0.75700003 -0.0053090933 1.3269353e-38 298 244
-0.027872739 0.75700003 -0.0053090933 1.3453745e-38 299 244
-0.026615599 0.759 -0.0053231199 1.3826846e-38 300 244
-0.025284819 0.759 -0.0053231199 1.4932833e-38 301 244
-0.023954039 0.759 -0.0053231199 1.3644953e-38 302 244
-0.02262326 0.759 -0.0053231199 1.2262019e-38 303 244
-0.021348584 0.76099998 -0.0053371461 1.2896197e-38 304 244
-0.0199617 0.759 -0.0053231199 1.2066437e-38 305 244
-0.01863092 0.759 -0.0053231199 1.2792846e-38 306 244
-0.017300138 0.759 -0.0053231199 1.2608455e-38 307 244
-0.015927281 0.75700003 -0.0053090933 1.279178e-38 308 244
-0.014600007 0.75700003 -0.0053090933 1.2607388e-38 309 244
-0.013272733 0.75700003 -0.0053090933 1.2513035e-38 310 244
-0.01194546 0.75700003 -0.0053090933 1.2236808e-38 311 244
-0.010618187 0.75700003 -0.0053090933 1.2420827e-38 312 244
-0.0092909131 0.75700003 -0.0053090933 1.3066196e-38 313 244
-0.0079636406 0.75700003 -0.0053090933 1.2975427e-38 314 244
-0.0066188332 0.755 -0.0052950666 1.3159458e-38 315 244
-0.0052950666 0.755 -0.0052950666 1.3341687e-38 316 244
-0.0039712996 0.755 -0.0052950666 1.288071e-38 317 244
-0.0026475333 0.755 -0.0052950666 1.3063675e-38 318 244
-0.0013237667 0.755 -0.0052950666 1.3616849e-38 319 244
0 0.75400001 -0.0052880533 1.353186e-38 320 244
0.0013220133 0.75400001 -0.0052880533 1.353186e-38 321 244
0.0026440267 0.75400001 -0.0052880533 1.3074124e-38 322 244
0.00396604 0.75400001 -0.0052880533 1.3535103e-38 323 244
0.0052880533 0.75400001 -0.0052880533 1.2343409e-38 324 244
0.0066100666 0.75400001 -0.0052880533 1.2435605e-38 325 244
0.00793208 0.75400001 -0.0052880533 1.1339715e-38 326 244
0.0092540924 0.75400001 -0.0052880533 1.3552051e-38 327 244
0.010576107 0.75400001 -0.0052880533 1.3371275e-38 328 244
0.01189812 0.75400001 -0.0052880533 1.3647862e-38 329 244
0.013220133 0.75400001 -0.0052880533 1.2821696e-38 330 244
0.014542146 0.75400001 -0.0052880533 1.2545108e-38 331 244
0.01586416 0.75400001 -0.0052880533 1.2452912e-38 332 244
0.017186172 0.75400001 -0.0052880533 1.2637303e-38 333 244
0.018508185 0.75400001 -0.0052880533 1.2453994e-38 334 244
0.019830201 0.75400001 -0.0052880533 1.2730222e-38 335 244
0.021152213 0.75400001 -0.0052880533 1.3096844e-38 336 244
0.022474226 0.75400001 -0.0052880533 1.2451474e-38 337 244
0.02379624 0.75400001 -0.0052880533 1.3088561e-38 338 244
0.025118252 0.75400001 -0.0052880533 1.1244649e-38 339 244
0.026475333 0.755 -0.0052950666 1.2899492e-38 340 244
0.027799098 0.755 -0.0052950666 1.5204743e-38 341 244
0.029122867 0.755 -0.0052950666 1.2912445e-38 342 244
0.030446632 0.755 -0.0052950666 1.2728054e-38 343 244
0.031770397 0.755 -0.0052950666 1.2544038e-38 344 244
-0.051900417 0.759 -0.0066538998 1.3926244e-38 281 245
-0.050569639 0.759 -0.0066538998 1.3557462e-38 282 245
-0.049238857 0.759 -0.0066538998 1.337307e-38 283 245
-0.04778184 0.75700003 -0.0066363667 1.3096488e-38 284 245
-0.046454567 0.75700003 -0.0066363667 1.2912095e-38 285 245
-0.045246519 0.759 -0.0066538998 1.2820972e-38 286 245
-0.043915741 0.759 -0.0066538998 1.3005364e-38 287 245
-0.042584959 0.759 -0.0066538998 1.3463809e-38 288 245
-0.041145474 0.75700003 -0.0066363667 1.1988319e-38 289 245
-0.039818201 0.75700003 -0.0066363667 1.2256977e-38 290 245
-0.038389232 0.755 -0.0066188332 1.2256977e-38 291 245
-0.037065465 0.755 -0.0066188332 1.2897677e-38 292 245
-0.035741698 0.755 -0.0066188332 1.4280612e-38 293 245
-0.034417931 0.755 -0.0066188332 1.5302679e-38 294 245
-0.033094164 0.755 -0.0066188332 1.4288167e-38 295 245
-0.031770397 0.755 -0.0066188332 1.2536086e-38 296 245
-0.030446632 0.755 -0.0066188332 1.1891075e-38 297 245
