# .PCD v.7 - Point Cloud Data file format
FIELDS x y z rgb imX imY
SIZE 4 4 4 4 4 4
TYPE F F F F F F
COUNT 1 1 1 1 1 1
WIDTH 845
HEIGHT 1
VIEWPOINT 0 0 0 1 0 0 0
POINTS 845
DATA ascii
0.066197097 0.83899999 0.03530512 1.5711452e-38 365 216
0.06766814 0.83899999 0.03530512 1.3965859e-38 366 216
0.06913919 0.83899999 0.03530512 1.2952067e-38 367 216
0.070778556 0.84100002 0.035389278 9.4637645e-39 368 216
0.072253108 0.84100002 0.035389278 9.4637645e-39 369 216
0.073903002 0.84299999 0.03547344 5.4316557e-39 370 216
0.075381055 0.84299999 0.03547344 6.5380018e-39 371 216
0.076859117 0.84299999 0.03547344 6.911134e-39 372 216
-0.13761912 0.83499998 0.033672765 1.6574317e-38 226 217
-0.1361551 0.83499998 0.033672765 1.7957252e-38 227 217
-0.13469106 0.83499998 0.033672765 2.0623009e-38 228 217
-0.13322704 0.83499998 0.033672765 2.0346782e-38 229 217
-0.1314474 0.833 0.033592112 2.0346426e-38 230 217
-0.12998687 0.833 0.033592112 2.0438622e-38 231 217
-0.12883492 0.83499998 0.033672765 2.0347148e-38 232 217
-0.12737089 0.83499998 0.033672765 2.0347148e-38 233 217
-0.12590685 0.83499998 0.033672765 2.062194e-38 234 217
-0.12444282 0.83499998 0.033672765 2.062194e-38 235 217
-0.12297879 0.83499998 0.033672765 2.0438628e-38 236 217
-0.12180582 0.83700001 0.033753417 2.0622659e-38 237 217
-0.12033828 0.83700001 0.033753417 2.0439344e-38 238 217
-0.11887074 0.83700001 0.033753417 2.0531541e-38 239 217
-0.11740319 0.83700001 0.033753417 2.0531541e-38 240 217
-0.11593566 0.83700001 0.033753417 2.0531541e-38 241 217
-0.11446812 0.83700001 0.033753417 2.0439344e-38 242 217
-0.11300057 0.83700001 0.033753417 2.0531541e-38 243 217
-0.11153304 0.83700001 0.033753417 2.0622656e-38 244 217
-0.1100655 0.83700001 0.033753417 2.0622656e-38 245 217
-0.10859796 0.83700001 0.033753417 2.0622653e-38 246 217
-0.1073864 0.83899999 0.03383407 2.0622653e-38 247 217
-0.10591535 0.83899999 0.03383407 2.0623009e-38 248 217
-0.10444431 0.83899999 0.03383407 2.0623009e-38 249 217
-0.10272779 0.83700001 0.033753417 2.0623009e-38 250 217
-0.10126026 0.83700001 0.033753417 2.0623009e-38 251 217
-0.099792719 0.83700001 0.033753417 2.0714489e-38 252 217
-0.098325178 0.83700001 0.033753417 2.0714489e-38 253 217
-0.096857637 0.83700001 0.033753417 2.0622656e-38 254 217
-0.095390104 0.83700001 0.033753417 2.0622656e-38 255 217
-0.093922555 0.83700001 0.033753417 2.0531541e-38 256 217
-0.092455015 0.83700001 0.033753417 2.0531541e-38 257 217
-0.090987481 0.83700001 0.033753417 2.0531541e-38 258 217
-0.089519933 0.83700001 0.033753417 2.0623736e-38 259 217
-0.088052399 0.83700001 0.033753417 2.0531541e-38 260 217
-0.086584859 0.83700001 0.033753417 2.0623736e-38 261 217
-0.085117318 0.83700001 0.033753417 2.0807051e-38 262 217
-0.083849654 0.83899999 0.03383407 2.0714856e-38 263 217
-0.082378611 0.83899999 0.03383407 2.07145e-38 264 217
-0.080907568 0.83899999 0.03383407 2.07145e-38 265 217
-0.079247162 0.83700001 0.033753417 2.07145e-38 266 217
-0.077779621 0.83700001 0.033753417 2.07145e-38 267 217
-0.07631208 0.83700001 0.033753417 2.0531188e-38 268 217
-0.074844539 0.83700001 0.033753417 2.0531188e-38 269 217
-0.073376998 0.83700001 0.033753417 2.0714856e-38 270 217
-0.071909457 0.83700001 0.033753417 2.0714856e-38 271 217
-0.070441924 0.83700001 0.033753417 2.0714135e-38 272 217
-0.068974376 0.83700001 0.033753417 2.0714135e-38 273 217
-0.067506835 0.83700001 0.033753417 2.0714135e-38 274 217
-0.066039301 0.83700001 0.033753417 2.0714135e-38 275 217
-0.064571753 0.83700001 0.033753417 2.0622659e-38 276 217
-0.06310422 0.83700001 0.033753417 2.0346073e-38 277 217
-0.061636675 0.83700001 0.033753417 2.0437193e-38 278 217
-0.060169142 0.83700001 0.033753417 2.0437193e-38 279 217
-0.058841862 0.83899999 0.03383407 2.0437193e-38 280 217
-0.057370819 0.83899999 0.03383407 2.0437193e-38 281 217
-0.055899773 0.83899999 0.03383407 2.0344275e-38 282 217
-0.054558471 0.84100002 0.033914726 2.0344275e-38 283 217
-0.053083919 0.84100002 0.033914726 2.0161679e-38 284 217
-0.051609367 0.84100002 0.033914726 2.0161679e-38 285 217
-0.050015584 0.83899999 0.03383407 2.016096e-38 286 217
-0.048544537 0.83899999 0.03383407 2.016096e-38 287 217
-0.047073491 0.83899999 0.03383407 2.0068763e-38 288 217
-0.045711152 0.84100002 0.033914726 1.9976568e-38 289 217
-0.0440262 0.83700001 0.033753417 2.0342832e-38 290 217
-0.042558659 0.83700001 0.033753417 2.0342832e-38 291 217
-0.041091122 0.83700001 0.033753417 2.0159167e-38 292 217
-0.039623581 0.83700001 0.033753417 1.9974417e-38 293 217
-0.03815604 0.83700001 0.033753417 1.9973698e-38 294 217
-0.036688499 0.83700001 0.033753417 1.9881502e-38 295 217
-0.035220962 0.83700001 0.033753417 1.9789658e-38 296 217
-0.03383407 0.83899999 0.03383407 1.9513073e-38 297 217
-0.032363027 0.83899999 0.03383407 1.9789292e-38 298 217
-0.030891977 0.83899999 0.03383407 1.9789292e-38 299 217
-0.029420931 0.83899999 0.03383407 1.9789653e-38 300 217
-0.027949886 0.83899999 0.03383407 1.9789653e-38 301 217
-0.026478838 0.83899999 0.03383407 1.9974051e-38 302 217
-0.025007792 0.83899999 0.03383407 2.0066246e-38 303 217
-0.023536745 0.83899999 0.03383407 2.0157366e-38 304 217
-0.022065699 0.83899999 0.03383407 2.0249562e-38 305 217
-0.020545561 0.83700001 0.033753417 2.0159161e-38 306 217
-0.01907802 0.83700001 0.033753417 2.0159161e-38 307 217
-0.017610481 0.83700001 0.033753417 2.015988e-38 308 217
-0.016142938 0.83700001 0.033753417 2.015988e-38 309 217
-0.014710465 0.83899999 0.03383407 2.0342832e-38 310 217
-0.013239419 0.83899999 0.03383407 2.0342832e-38 311 217
-0.011768373 0.83899999 0.03383407 2.0342832e-38 312 217
-0.010297326 0.83899999 0.03383407 2.0342832e-38 313 217
-0.00882628 0.83899999 0.03383407 2.0158442e-38 314 217
-0.0073552327 0.83899999 0.03383407 2.0158442e-38 315 217
-0.0058841864 0.83899999 0.03383407 2.0066965e-38 316 217
-0.0044026203 0.83700001 0.033753417 2.0159161e-38 317 217
-0.0029350799 0.83700001 0.033753417 1.9975849e-38 318 217
-0.0014675399 0.83700001 0.033753417 1.9975849e-38 319 217
0 0.83700001 0.033753417 1.9975849e-38 320 217
0.0014710466 0.83899999 0.03383407 1.9883653e-38 321 217
0.0029420932 0.83899999 0.03383407 1.9974051e-38 322 217
0.00441314 0.83899999 0.03383407 1.9881855e-38 323 217
0.0058841864 0.83899999 0.03383407 1.9880053e-38 324 217
0.0073552327 0.83899999 0.03383407 1.9511631e-38 325 217
0.0088473195 0.84100002 0.033914726 1.9600952e-38 326 217
0.010321873 0.84100002 0.033914726 1.9508757e-38 327 217
0.011796427 0.84100002 0.033914726 1.9324363e-38 328 217
0.01327098 0.84100002 0.033914726 1.913997e-38 329 217
0.014745533 0.84100002 0.033914726 1.895449e-38 330 217
0.016220087 0.84100002 0.033914726 1.8677544e-38 331 217
0.017694639 0.84100002 0.033914726 1.8582828e-38 332 217
0.019169193 0.84100002 0.033914726 1.812221e-38 333 217
0.020643746 0.84100002 0.033914726 1.8210808e-38 334 217
0.022065699 0.83899999 0.03383407 1.7842026e-38 335 217
0.023536745 0.83899999 0.03383407 1.7931705e-38 336 217
0.025007792 0.83899999 0.03383407 1.7655116e-38 337 217
0.026478838 0.83899999 0.03383407 1.7744795e-38 338 217
0.027949886 0.83899999 0.03383407 1.7191621e-38 339 217
0.029350799 0.83700001 0.033753417 1.7280586e-38 340 217
0.030818338 0.83700001 0.033753417 1.6819968e-38 341 217
0.032363027 0.83899999 0.03383407 1.7000406e-38 342 217
0.03383407 0.83899999 0.03383407 1.6724179e-38 343 217
0.03530512 0.83899999 0.03383407 1.6907842e-38 344 217
0.03686383 0.84100002 0.033914726 1.6539418e-38 345 217
0.038338386 0.84100002 0.033914726 1.6354305e-38 346 217
0.039812941 0.84100002 0.033914726 1.6077358e-38 347 217
0.041287493 0.84100002 0.033914726 1.6442548e-38 348 217
0.042762045 0.84100002 0.033914726 1.6258155e-38 349 217
0.0442366 0.84100002 0.033914726 1.6440032e-38 350 217
0.045711152 0.84100002 0.033914726 1.6347837e-38 351 217
0.047185708 0.84100002 0.033914726 1.6254925e-38 352 217
0.04866026 0.84100002 0.033914726 1.6163088e-38 353 217
0.053083919 0.84100002 0.033914726 1.616344e-38 356 217
0.054558471 0.84100002 0.033914726 1.6071243e-38 357 217
0.056033026 0.84100002 0.033914726 1.6163078e-38 358 217
0.057507578 0.84100002 0.033914726 1.6254916e-38 359 217
0.058841862 0.83899999 0.03383407 1.607197e-38 360 217
0.060312908 0.83899999 0.03383407 1.6348555e-38 361 217
0.061783955 0.83899999 0.03383407 1.5983366e-38 362 217
0.06310422 0.83700001 0.033753417 1.6259954e-38 363 217
0.064571753 0.83700001 0.033753417 1.6262458e-38 364 217
0.066039301 0.83700001 0.033753417 1.6815632e-38 365 217
0.067506835 0.83700001 0.033753417 1.6540835e-38 366 217
0.068974376 0.83700001 0.033753417 1.6448639e-38 367 217
0.070273593 0.83499998 0.033672765 1.4521538e-38 368 217
0.071737625 0.83499998 0.033672765 1.4429341e-38 369 217
0.073201664 0.83499998 0.033672765 1.0937803e-38 370 217
0.074665695 0.83499998 0.033672765 9.0016947e-39 371 217
0.076494418 0.83899999 0.03383407 6.5203398e-39 372 217
0.077965468 0.83899999 0.03383407 5.8774816e-39 373 217
0.079625882 0.84100002 0.033914726 1.472291e-39 374 217
-0.13941629 0.83700001 0.032285877 1.3451186e-38 225 218
-0.13761912 0.83499998 0.03220873 1.896529e-38 226 218
-0.1361551 0.83499998 0.03220873 1.9426268e-38 227 218
-0.13436845 0.833 0.032131586 2.0347148e-38 228 218
-0.13290793 0.833 0.032131586 2.0070562e-38 229 218
-0.1314474 0.833 0.032131586 2.0529741e-38 230 218
-0.12998687 0.833 0.032131586 2.0529741e-38 231 218
-0.12852634 0.833 0.032131586 2.0347148e-38 232 218
-0.12706582 0.833 0.032131586 2.0347148e-38 233 218
-0.12590685 0.83499998 0.03220873 2.0529741e-38 234 218
-0.12444282 0.83499998 0.03220873 2.0621937e-38 235 218
-0.12297879 0.83499998 0.03220873 2.0439344e-38 236 218
-0.12151476 0.83499998 0.03220873 2.0439344e-38 237 218
-0.12005073 0.83499998 0.03220873 2.0531541e-38 238 218
-0.11887074 0.83700001 0.032285877 2.0531541e-38 239 218
-0.11740319 0.83700001 0.032285877 2.0531541e-38 240 218
-0.11593566 0.83700001 0.032285877 2.0439344e-38 241 218
-0.11446812 0.83700001 0.032285877 2.0622653e-38 242 218
-0.11300057 0.83700001 0.032285877 2.0622653e-38 243 218
-0.11153304 0.83700001 0.032285877 2.0622656e-38 244 218
-0.1100655 0.83700001 0.032285877 2.0438625e-38 245 218
-0.10859796 0.83700001 0.032285877 2.0439344e-38 246 218
-0.10713042 0.83700001 0.032285877 2.0439344e-38 247 218
-0.10566287 0.83700001 0.032285877 2.0531541e-38 248 218
-0.10419534 0.83700001 0.032285877 2.0439344e-38 249 218
-0.10272779 0.83700001 0.032285877 2.0622653e-38 250 218
-0.10101829 0.83499998 0.03220873 2.0622653e-38 251 218
-0.099554263 0.83499998 0.03220873 2.0714853e-38 252 218
-0.098090231 0.83499998 0.03220873 2.0714853e-38 253 218
-0.096626192 0.83499998 0.03220873 2.0439346e-38 254 218
-0.095390104 0.83700001 0.032285877 2.0439346e-38 255 218
-0.093922555 0.83700001 0.032285877 2.0531541e-38 256 218
-0.092455015 0.83700001 0.032285877 2.0531541e-38 257 218
-0.090987481 0.83700001 0.032285877 2.0531538e-38 258 218
-0.089519933 0.83700001 0.032285877 2.0531538e-38 259 218
-0.088052399 0.83700001 0.032285877 2.0715209e-38 260 218
-0.086584859 0.83700001 0.032285877 2.0807404e-38 261 218
-0.085117318 0.83700001 0.032285877 2.0531541e-38 262 218
-0.083649777 0.83700001 0.032285877 2.0531541e-38 263 218
-0.082378611 0.83899999 0.032363027 2.0531541e-38 264 218
-0.080907568 0.83899999 0.032363027 2.0531541e-38 265 218
-0.079247162 0.83700001 0.032285877 2.0439346e-38 266 218
-0.077779621 0.83700001 0.032285877 2.0346792e-38 267 218
-0.07631208 0.83700001 0.032285877 2.0622659e-38 268 218
-0.074844539 0.83700001 0.032285877 2.0622659e-38 269 218
-0.073376998 0.83700001 0.032285877 2.0622659e-38 270 218
-0.071909457 0.83700001 0.032285877 2.0622659e-38 271 218
-0.070441924 0.83700001 0.032285877 2.0714133e-38 272 218
-0.068974376 0.83700001 0.032285877 2.0621937e-38 273 218
-0.067506835 0.83700001 0.032285877 2.0438625e-38 274 218
-0.066039301 0.83700001 0.032285877 2.0438625e-38 275 218
-0.064571753 0.83700001 0.032285877 2.0529744e-38 276 218
-0.06310422 0.83700001 0.032285877 2.043719e-38 277 218
-0.061636675 0.83700001 0.032285877 2.0436471e-38 278 218
-0.060169142 0.83700001 0.032285877 2.0436471e-38 279 218
-0.058701597 0.83700001 0.032285877 2.043719e-38 280 218
-0.05723406 0.83700001 0.032285877 2.0253159e-38 281 218
-0.055766519 0.83700001 0.032285877 2.0160963e-38 282 218
-0.054298978 0.83700001 0.032285877 2.0068767e-38 283 218
-0.052957676 0.83899999 0.032363027 2.0160963e-38 284 218
-0.05148663 0.83899999 0.032363027 2.0160963e-38 285 218
-0.050015584 0.83899999 0.032363027 2.0252075e-38 286 218
-0.048544537 0.83899999 0.032363027 2.015988e-38 287 218
-0.047073491 0.83899999 0.032363027 2.0251715e-38 288 218
-0.045493741 0.83700001 0.032285877 2.0066965e-38 289 218
-0.0440262 0.83700001 0.032285877 2.0066965e-38 290 218
-0.042558659 0.83700001 0.032285877 1.997477e-38 291 218
-0.041091122 0.83700001 0.032285877 1.997477e-38 292 218
-0.039623581 0.83700001 0.032285877 1.9698543e-38 293 218
-0.03815604 0.83700001 0.032285877 1.9881138e-38 294 218
-0.036688499 0.83700001 0.032285877 1.9881138e-38 295 218
-0.035220962 0.83700001 0.032285877 1.9788937e-38 296 218
-0.033753417 0.83700001 0.032285877 1.9788937e-38 297 218
-0.032285877 0.83700001 0.032285877 1.9789653e-38 298 218
-0.030818338 0.83700001 0.032285877 1.9789653e-38 299 218
-0.029350799 0.83700001 0.032285877 1.9882927e-38 300 218
-0.027949886 0.83899999 0.032363027 1.9882927e-38 301 218
-0.026478838 0.83899999 0.032363027 2.0066246e-38 302 218
-0.02494818 0.83700001 0.032285877 2.0066246e-38 303 218
-0.023480639 0.83700001 0.032285877 1.9974417e-38 304 218
-0.0220131 0.83700001 0.032285877 2.0066612e-38 305 218
-0.020545561 0.83700001 0.032285877 1.9976568e-38 306 218
-0.01907802 0.83700001 0.032285877 1.9976568e-38 307 218
-0.017610481 0.83700001 0.032285877 2.0252431e-38 308 218
-0.016142938 0.83700001 0.032285877 2.0252431e-38 309 218
-0.014675399 0.83700001 0.032285877 2.0342829e-38 310 218
-0.013207859 0.83700001 0.032285877 2.0342829e-38 311 218
-0.011768373 0.83899999 0.032363027 2.0066246e-38 312 218
-0.01027278 0.83700001 0.032285877 2.0066246e-38 313 218
-0.0088052405 0.83700001 0.032285877 2.0066246e-38 314 218
-0.0073376996 0.83700001 0.032285877 2.0066246e-38 315 218
-0.0058701597 0.83700001 0.032285877 1.9883653e-38 316 218
-0.0044026203 0.83700001 0.032285877 1.9883653e-38 317 218
-0.0029350799 0.83700001 0.032285877 1.9883653e-38 318 218
-0.0014675399 0.83700001 0.032285877 1.9791457e-38 319 218
0 0.83700001 0.032285877 1.9974773e-38 320 218
0.0014675399 0.83700001 0.032285877 1.9974773e-38 321 218
0.0029350799 0.83700001 0.032285877 1.9881499e-38 322 218
0.0044026203 0.83700001 0.032285877 1.9789302e-38 323 218
0.0058701597 0.83700001 0.032285877 1.9880053e-38 324 218
0.0073552327 0.83899999 0.032363027 1.9511631e-38 325 218
0.00882628 0.83899999 0.032363027 1.9601308e-38 326 218
0.010297326 0.83899999 0.032363027 1.9601308e-38 327 218
0.011768373 0.83899999 0.032363027 1.9324714e-38 328 218
0.013239419 0.83899999 0.032363027 1.9140323e-38 329 218
0.014745533 0.84100002 0.032440174 1.8771892e-38 330 218
0.016220087 0.84100002 0.032440174 1.8219077e-38 331 218
0.01765256 0.83899999 0.032363027 1.8399515e-38 332 218
0.019123605 0.83899999 0.032363027 1.7846342e-38 333 218
0.020594653 0.83899999 0.032363027 1.8119338e-38 334 218
0.022065699 0.83899999 0.032363027 1.7566165e-38 335 218
0.023536745 0.83899999 0.032363027 1.793171e-38 336 218
0.025007792 0.83899999 0.032363027 1.7562568e-38 337 218
0.026415719 0.83700001 0.032285877 1.7377452e-38 338 218
0.02788326 0.83700001 0.032285877 1.7009028e-38 339 218
0.029350799 0.83700001 0.032285877 1.7187671e-38 340 218
0.030818338 0.83700001 0.032285877 1.6634497e-38 341 218
0.032285877 0.83700001 0.032285877 1.7000043e-38 342 218
0.033753417 0.83700001 0.032285877 1.6815292e-38 343 218
0.035220962 0.83700001 0.032285877 1.6722727e-38 344 218
0.036776166 0.83899999 0.032363027 1.6538336e-38 345 218
0.038247209 0.83899999 0.032363027 1.6353225e-38 346 218
0.039812941 0.84100002 0.032440174 1.5984443e-38 347 218
0.041287493 0.84100002 0.032440174 1.6349632e-38 348 218
0.042660352 0.83899999 0.032363027 1.616524e-38 349 218
0.044131398 0.83899999 0.032363027 1.6531149e-38 350 218
0.045602445 0.83899999 0.032363027 1.6254922e-38 351 218
0.047073491 0.83899999 0.032363027 1.6438594e-38 352 218
0.04866026 0.84100002 0.032440174 1.6438594e-38 353 218
0.050134812 0.84100002 0.032440174 1.6163084e-38 354 218
0.051609367 0.84100002 0.032440174 1.597941e-38 355 218
0.053083919 0.84100002 0.032440174 1.6254915e-38 356 218
0.054558471 0.84100002 0.032440174 1.6254915e-38 357 218
0.056033026 0.84100002 0.032440174 1.6071244e-38 358 218
0.057507578 0.84100002 0.032440174 1.6347115e-38 359 218
0.058701597 0.83700001 0.032285877 1.6165243e-38 360 218
0.060169142 0.83700001 0.032285877 1.6257439e-38 361 218
0.061636675 0.83700001 0.032285877 1.6258158e-38 362 218
0.06310422 0.83700001 0.032285877 1.6534746e-38 363 218
0.064571753 0.83700001 0.032285877 1.6444701e-38 364 218
0.066039301 0.83700001 0.032285877 1.6720929e-38 365 218
0.067506835 0.83700001 0.032285877 1.6356096e-38 366 218
0.068809561 0.83499998 0.03220873 1.6540487e-38 367 218
0.070273593 0.83499998 0.03220873 1.5991633e-38 368 218
0.071737625 0.83499998 0.03220873 1.626786e-38 369 218
0.073201664 0.83499998 0.03220873 1.5900883e-38 370 218
0.074665695 0.83499998 0.03220873 1.5071122e-38 371 218
0.076129727 0.83499998 0.03220873 1.3229726e-38 372 218
0.077593759 0.83499998 0.03220873 1.2215215e-38 373 218
0.079057798 0.83499998 0.03220873 5.8821647e-39 374 218
0.080714695 0.83700001 0.032285877 4.3162739e-39 375 218
0.082378611 0.83899999 0.032363027 1.2871809e-39 376 218
0.084049538 0.84100002 0.032440174 2.1169416e-39 377 218
-0.13875003 0.833 0.030671058 1.602438e-38 225 219
-0.13728951 0.833 0.030671058 1.9792176e-38 226 219
-0.13550285 0.83099997 0.030597419 1.9884372e-38 227 219
-0.13404582 0.83099997 0.030597419 1.997837e-38 228 219
-0.1325888 0.83099997 0.030597419 1.997837e-38 229 219
-0.1311318 0.83099997 0.030597419 2.0070565e-38 230 219
-0.12967478 0.83099997 0.030597419 2.0254596e-38 231 219
-0.12821776 0.83099997 0.030597419 2.0346429e-38 232 219
-0.12706582 0.833 0.030671058 2.0438625e-38 233 219
-0.12590685 0.83499998 0.030744698 2.0438625e-38 234 219
-0.12444282 0.83499998 0.030744698 2.0438625e-38 235 219
-0.12297879 0.83499998 0.030744698 2.0439344e-38 236 219
-0.12151476 0.83499998 0.030744698 2.0439344e-38 237 219
-0.12005073 0.83499998 0.030744698 2.0531541e-38 238 219
-0.11887074 0.83700001 0.030818338 2.0531541e-38 239 219
-0.11740319 0.83700001 0.030818338 2.0622659e-38 240 219
-0.11565863 0.83499998 0.030744698 2.0622659e-38 241 219
-0.11419459 0.83499998 0.030744698 2.0438628e-38 242 219
-0.11300057 0.83700001 0.030818338 2.0438628e-38 243 219
-0.11153304 0.83700001 0.030818338 2.0438628e-38 244 219
-0.1100655 0.83700001 0.030818338 2.0622659e-38 245 219
-0.10859796 0.83700001 0.030818338 2.0622656e-38 246 219
-0.10713042 0.83700001 0.030818338 2.0622656e-38 247 219
-0.10566287 0.83700001 0.030818338 2.0531541e-38 248 219
-0.10419534 0.83700001 0.030818338 2.0439344e-38 249 219
-0.10248233 0.83499998 0.030744698 2.0622656e-38 250 219
-0.10101829 0.83499998 0.030744698 2.0622656e-38 251 219
-0.099554263 0.83499998 0.030744698 2.0531538e-38 252 219
-0.098090231 0.83499998 0.030744698 2.0531538e-38 253 219
-0.096626192 0.83499998 0.030744698 2.0622656e-38 254 219
-0.095162161 0.83499998 0.030744698 2.0622656e-38 255 219
-0.093698129 0.83499998 0.030744698 2.0531541e-38 256 219
-0.092234097 0.83499998 0.030744698 2.0531541e-38 257 219
-0.090770066 0.83499998 0.030744698 2.0531541e-38 258 219
-0.089306027 0.83499998 0.030744698 2.0439344e-38 259 219
-0.088052399 0.83700001 0.030818338 2.0622659e-38 260 219
-0.086584859 0.83700001 0.030818338 2.0714856e-38 261 219
-0.085117318 0.83700001 0.030818338 2.0714856e-38 262 219
-0.083649777 0.83700001 0.030818338 2.0714856e-38 263 219
-0.082182243 0.83700001 0.030818338 2.0439346e-38 264 219
-0.080714695 0.83700001 0.030818338 2.0439346e-38 265 219
-0.079247162 0.83700001 0.030818338 2.0438992e-38 266 219
-0.077779621 0.83700001 0.030818338 2.0346795e-38 267 219
-0.07631208 0.83700001 0.030818338 2.0438272e-38 268 219
-0.074844539 0.83700001 0.030818338 2.0622304e-38 269 219
-0.073201664 0.83499998 0.030744698 2.0622659e-38 270 219
-0.071737625 0.83499998 0.030744698 2.0622659e-38 271 219
-0.070273593 0.83499998 0.030744698 2.0622659e-38 272 219
-0.068809561 0.83499998 0.030744698 2.0438628e-38 273 219
-0.067506835 0.83700001 0.030818338 2.0438628e-38 274 219
-0.066039301 0.83700001 0.030818338 2.0346073e-38 275 219
-0.064571753 0.83700001 0.030818338 2.0529025e-38 276 219
-0.06310422 0.83700001 0.030818338 2.0344275e-38 277 219
-0.061636675 0.83700001 0.030818338 2.0160963e-38 278 219
-0.060169142 0.83700001 0.030818338 2.0253159e-38 279 219
-0.058701597 0.83700001 0.030818338 2.0161682e-38 280 219
-0.05723406 0.83700001 0.030818338 2.0069486e-38 281 219
-0.055766519 0.83700001 0.030818338 2.0159883e-38 282 219
-0.054298978 0.83700001 0.030818338 2.0159883e-38 283 219
-0.052831437 0.83700001 0.030818338 2.0068767e-38 284 219
-0.051363897 0.83700001 0.030818338 1.997657e-38 285 219
-0.049896359 0.83700001 0.030818338 1.9975496e-38 286 219
-0.048428819 0.83700001 0.030818338 1.98833e-38 287 219
-0.046961278 0.83700001 0.030818338 2.0066968e-38 288 219
-0.045493741 0.83700001 0.030818338 2.0066968e-38 289 219
-0.0440262 0.83700001 0.030818338 1.9791457e-38 290 219
-0.042558659 0.83700001 0.030818338 1.9791457e-38 291 219
-0.041091122 0.83700001 0.030818338 1.9882571e-38 292 219
-0.039623581 0.83700001 0.030818338 1.9698539e-38 293 219
-0.03815604 0.83700001 0.030818338 1.9789655e-38 294 219
-0.036688499 0.83700001 0.030818338 1.969746e-38 295 219
-0.035220962 0.83700001 0.030818338 1.9789292e-38 296 219
-0.033753417 0.83700001 0.030818338 1.9881488e-38 297 219
-0.032285877 0.83700001 0.030818338 1.9881485e-38 298 219
-0.030818338 0.83700001 0.030818338 2.0157713e-38 299 219
-0.029350799 0.83700001 0.030818338 1.9882927e-38 300 219
-0.02788326 0.83700001 0.030818338 1.9975123e-38 301 219
-0.026415719 0.83700001 0.030818338 1.997477e-38 302 219
-0.02494818 0.83700001 0.030818338 2.0066965e-38 303 219
-0.023480639 0.83700001 0.030818338 2.0159161e-38 304 219
-0.0220131 0.83700001 0.030818338 2.0251715e-38 305 219
-0.020496465 0.83499998 0.030744698 2.0252075e-38 306 219
-0.019032432 0.83499998 0.030744698 2.0252075e-38 307 219
-0.017568398 0.83499998 0.030744698 2.0069119e-38 308 219
-0.016142938 0.83700001 0.030818338 2.0069119e-38 309 219
-0.014675399 0.83700001 0.030818338 2.0159517e-38 310 219
-0.013207859 0.83700001 0.030818338 2.0067321e-38 311 219
-0.011740319 0.83700001 0.030818338 2.0066249e-38 312 219
-0.01027278 0.83700001 0.030818338 2.0066249e-38 313 219
-0.0088052405 0.83700001 0.030818338 1.9974417e-38 314 219
-0.0073376996 0.83700001 0.030818338 1.9974417e-38 315 219
-0.0058701597 0.83700001 0.030818338 1.9974773e-38 316 219
-0.0044026203 0.83700001 0.030818338 1.9974773e-38 317 219
-0.0029350799 0.83700001 0.030818338 1.9882218e-38 318 219
-0.0014675399 0.83700001 0.030818338 1.9882218e-38 319 219
0 0.83700001 0.030818338 1.9698193e-38 320 219
0.0014675399 0.83700001 0.030818338 1.9605637e-38 321 219
0.0029350799 0.83700001 0.030818338 1.9788586e-38 322 219
0.0044026203 0.83700001 0.030818338 1.9788586e-38 323 219
0.0058701597 0.83700001 0.030818338 1.978786e-38 324 219
0.0073376996 0.83700001 0.030818338 1.9511275e-38 325 219
0.00882628 0.83899999 0.030891977 1.9326516e-38 326 219
0.010297326 0.83899999 0.030891977 1.9141766e-38 327 219
0.011768373 0.83899999 0.030891977 1.8957371e-38 328 219
0.013239419 0.83899999 0.030891977 1.8681144e-38 329 219
0.014745533 0.84100002 0.030965621 1.8862289e-38 330 219
0.01765256 0.83899999 0.030891977 1.8490985e-38 332 219
0.019123605 0.83899999 0.030891977 1.8122561e-38 333 219
0.020594653 0.83899999 0.030891977 1.7934944e-38 334 219
0.022065699 0.83899999 0.030891977 1.7566162e-38 335 219
0.023480639 0.83700001 0.030818338 1.7747312e-38 336 219
0.02494818 0.83700001 0.030818338 1.7470366e-38 337 219
0.026352599 0.83499998 0.030744698 1.75604e-38 338 219
0.027816633 0.83499998 0.030744698 1.7007227e-38 339 219
0.029280664 0.83499998 0.030744698 1.7278066e-38 340 219
0.030744698 0.83499998 0.030744698 1.6725251e-38 341 219
0.03220873 0.83499998 0.030744698 1.6907124e-38 342 219
0.033753417 0.83700001 0.030818338 1.6722733e-38 343 219
0.035220962 0.83700001 0.030818338 1.653762e-38 344 219
0.036688499 0.83700001 0.030818338 1.6352869e-38 345 219
0.038247209 0.83899999 0.030891977 1.6259238e-38 346 219
0.039718259 0.83899999 0.030891977 1.6074487e-38 347 219
0.041189305 0.83899999 0.030891977 1.6165959e-38 348 219
0.042660352 0.83899999 0.030891977 1.6165959e-38 349 219
0.044131398 0.83899999 0.030891977 1.6164524e-38 350 219
0.045602445 0.83899999 0.030891977 1.607197e-38 351 219
0.047073491 0.83899999 0.030891977 1.6254921e-38 352 219
0.048544537 0.83899999 0.030891977 1.6254921e-38 353 219
0.050015584 0.83899999 0.030891977 1.6071243e-38 354 219
0.05148663 0.83899999 0.030891977 1.6254915e-38 355 219
0.052957676 0.83899999 0.030891977 1.6071244e-38 356 219
0.054428723 0.83899999 0.030891977 1.6071244e-38 357 219
0.055899773 0.83899999 0.030891977 1.6163084e-38 358 219
0.057370819 0.83899999 0.030891977 1.6347118e-38 359 219
0.058701597 0.83700001 0.030818338 1.6165243e-38 360 219
0.060025364 0.83499998 0.030744698 1.6257439e-38 361 219
0.061489396 0.83499998 0.030744698 1.6350355e-38 362 219
0.062953427 0.83499998 0.030744698 1.6534746e-38 363 219
0.064417459 0.83499998 0.030744698 1.6352871e-38 364 219
0.065881498 0.83499998 0.030744698 1.6537264e-38 365 219
0.067184225 0.833 0.030671058 1.6447222e-38 366 219
0.068644755 0.833 0.030671058 1.6723449e-38 367 219
0.070105277 0.833 0.030671058 1.6541203e-38 368 219
0.071565807 0.833 0.030671058 1.66334e-38 369 219
0.073026337 0.833 0.030671058 1.6543696e-38 370 219
0.074486859 0.833 0.030671058 1.6266749e-38 371 219
0.075947389 0.833 0.030671058 1.5437717e-38 372 219
0.077407911 0.833 0.030671058 1.5068574e-38 373 219
0.078868434 0.833 0.030671058 1.2587228e-38 374 219
0.080521829 0.83499998 0.030744698 1.1112098e-38 375 219
0.081985861 0.83499998 0.030744698 9.1835496e-39 376 219
0.083449893 0.83499998 0.030744698 8.5407011e-39 377 219
0.085117318 0.83700001 0.030818338 4.8672813e-39 378 219
-0.14133093 0.83099997 0.029140398 1.0601389e-38 223 220
-0.13987392 0.83099997 0.029140398 1.7031705e-38 224 220
-0.1384169 0.83099997 0.029140398 1.8137694e-38 225 220
-0.13695987 0.83099997 0.029140398 2.0159517e-38 226 220
-0.13550285 0.83099997 0.029140398 2.0343908e-38 227 220
-0.13372321 0.829 0.029070266 2.0161682e-38 228 220
-0.13226971 0.829 0.029070266 2.0253878e-38 229 220
-0.13081619 0.829 0.029070266 2.043719e-38 230 220
-0.12936267 0.829 0.029070266 2.043719e-38 231 220
-0.12821776 0.83099997 0.029140398 2.0346429e-38 232 220
-0.12706582 0.833 0.029210532 2.0346429e-38 233 220
-0.12590685 0.83499998 0.029280664 2.0438622e-38 234 220
-0.12444282 0.83499998 0.029280664 2.0622653e-38 235 220
-0.12297879 0.83499998 0.029280664 2.0439341e-38 236 220
-0.12151476 0.83499998 0.029280664 2.0347145e-38 237 220
-0.12005073 0.83499998 0.029280664 2.0621937e-38 238 220
-0.11858669 0.83499998 0.029280664 2.0621937e-38 239 220
-0.11712266 0.83499998 0.029280664 2.0529744e-38 240 220
-0.11565863 0.83499998 0.029280664 2.0529744e-38 241 220
-0.11419459 0.83499998 0.029280664 2.0529744e-38 242 220
-0.11273056 0.83499998 0.029280664 2.0529744e-38 243 220
-0.11126653 0.83499998 0.029280664 2.0529741e-38 244 220
-0.1098025 0.83499998 0.029280664 2.0714133e-38 245 220
-0.10859796 0.83700001 0.029350799 2.0531541e-38 246 220
-0.10713042 0.83700001 0.029350799 2.0531541e-38 247 220
-0.10566287 0.83700001 0.029350799 2.0531543e-38 248 220
-0.10394637 0.83499998 0.029280664 2.0531543e-38 249 220
-0.10248233 0.83499998 0.029280664 2.0622659e-38 250 220
-0.10101829 0.83499998 0.029280664 2.0622659e-38 251 220
-0.099554263 0.83499998 0.029280664 2.0622656e-38 252 220
-0.098090231 0.83499998 0.029280664 2.0714853e-38 253 220
-0.096626192 0.83499998 0.029280664 2.0714135e-38 254 220
-0.095162161 0.83499998 0.029280664 2.0714135e-38 255 220
-0.093698129 0.83499998 0.029280664 2.0439346e-38 256 220
-0.092234097 0.83499998 0.029280664 2.0439346e-38 257 220
-0.090770066 0.83499998 0.029280664 2.0622656e-38 258 220
-0.089306027 0.83499998 0.029280664 2.0622656e-38 259 220
-0.088052399 0.83700001 0.029350799 2.0622656e-38 260 220
-0.086584859 0.83700001 0.029350799 2.0714853e-38 261 220
-0.085117318 0.83700001 0.029350799 2.07145e-38 262 220
-0.083649777 0.83700001 0.029350799 2.0622304e-38 263 220
-0.082182243 0.83700001 0.029350799 2.0438272e-38 264 220
-0.080714695 0.83700001 0.029350799 2.0622304e-38 265 220
-0.079057798 0.83499998 0.029280664 2.0622659e-38 266 220
-0.077593759 0.83499998 0.029280664 2.0438628e-38 267 220
-0.076129727 0.83499998 0.029280664 2.0438628e-38 268 220
-0.074665695 0.83499998 0.029280664 2.0438628e-38 269 220
-0.073201664 0.83499998 0.029280664 2.0622656e-38 270 220
-0.071737625 0.83499998 0.029280664 2.0438625e-38 271 220
-0.070273593 0.83499998 0.029280664 2.0438625e-38 272 220
-0.068809561 0.83499998 0.029280664 2.0438625e-38 273 220
-0.06734553 0.83499998 0.029280664 2.0529744e-38 274 220
-0.065881498 0.83499998 0.029280664 2.043719e-38 275 220
-0.064417459 0.83499998 0.029280664 2.0253159e-38 276 220
-0.062953427 0.83499998 0.029280664 2.0160963e-38 277 220
-0.061636675 0.83700001 0.029350799 2.0161682e-38 278 220
-0.060169142 0.83700001 0.029350799 2.0069486e-38 279 220
-0.058701597 0.83700001 0.029350799 2.006877e-38 280 220
-0.05723406 0.83700001 0.029350799 2.006877e-38 281 220
-0.055766519 0.83700001 0.029350799 2.0068767e-38 282 220
-0.054298978 0.83700001 0.029350799 2.0068767e-38 283 220
-0.052831437 0.83700001 0.029350799 1.9976568e-38 284 220
-0.051363897 0.83700001 0.029350799 1.9976568e-38 285 220
-0.049896359 0.83700001 0.029350799 2.0066246e-38 286 220
-0.048428819 0.83700001 0.029350799 2.0066246e-38 287 220
-0.046961278 0.83700001 0.029350799 2.0066246e-38 288 220
-0.045493741 0.83700001 0.029350799 2.0066246e-38 289 220
-0.0440262 0.83700001 0.029350799 1.9974051e-38 290 220
-0.042558659 0.83700001 0.029350799 2.0066246e-38 291 220
-0.041091122 0.83700001 0.029350799 1.9699259e-38 292 220
-0.039623581 0.83700001 0.029350799 1.9607062e-38 293 220
-0.03815604 0.83700001 0.029350799 1.9607059e-38 294 220
-0.036688499 0.83700001 0.029350799 1.9607059e-38 295 220
-0.035220962 0.83700001 0.029350799 1.960634e-38 296 220
-0.033753417 0.83700001 0.029350799 1.9698536e-38 297 220
-0.032285877 0.83700001 0.029350799 1.9882207e-38 298 220
-0.030818338 0.83700001 0.029350799 1.9974404e-38 299 220
-0.029350799 0.83700001 0.029350799 2.0067318e-38 300 220
-0.02788326 0.83700001 0.029350799 1.9975123e-38 301 220
-0.026415719 0.83700001 0.029350799 2.0158798e-38 302 220
-0.024888566 0.83499998 0.029280664 2.0342829e-38 303 220
-0.023424532 0.83499998 0.029280664 2.015988e-38 304 220
-0.021960499 0.83499998 0.029280664 2.015988e-38 305 220
-0.020496465 0.83499998 0.029280664 2.0251715e-38 306 220
-0.019032432 0.83499998 0.029280664 2.0343911e-38 307 220
-0.017568398 0.83499998 0.029280664 2.0252075e-38 308 220
-0.016142938 0.83700001 0.029350799 2.015988e-38 309 220
-0.014675399 0.83700001 0.029350799 2.0159161e-38 310 220
-0.013207859 0.83700001 0.029350799 2.0066965e-38 311 220
-0.011740319 0.83700001 0.029350799 1.9974051e-38 312 220
-0.01027278 0.83700001 0.029350799 2.0066246e-38 313 220
-0.0088052405 0.83700001 0.029350799 2.0066246e-38 314 220
-0.0073376996 0.83700001 0.029350799 2.0066246e-38 315 220
-0.0058701597 0.83700001 0.029350799 2.0066249e-38 316 220
-0.0044026203 0.83700001 0.029350799 1.9974054e-38 317 220
-0.0029350799 0.83700001 0.029350799 1.9881855e-38 318 220
-0.0014675399 0.83700001 0.029350799 1.9789658e-38 319 220
0 0.83700001 0.029350799 1.9789655e-38 320 220
0.0014675399 0.83700001 0.029350799 1.9513429e-38 321 220
0.0029350799 0.83700001 0.029350799 1.9880053e-38 322 220
0.0044026203 0.83700001 0.029350799 1.9787858e-38 323 220
0.0058701597 0.83700001 0.029350799 1.960347e-38 324 220
0.0073376996 0.83700001 0.029350799 1.9326882e-38 325 220
0.0088052405 0.83700001 0.029350799 1.8958104e-38 326 220
0.01027278 0.83700001 0.029350799 1.8865908e-38 327 220
0.011740319 0.83700001 0.029350799 1.9046702e-38 328 220
0.013207859 0.83700001 0.029350799 1.867792e-38 329 220
0.014675399 0.83700001 0.029350799 1.8584998e-38 330 220
0.016181514 0.83899999 0.029420931 1.8216216e-38 331 220
0.01765256 0.83899999 0.029420931 1.830697e-38 332 220
0.019123605 0.83899999 0.029420931 1.76616e-38 333 220
0.020594653 0.83899999 0.029420931 1.8026787e-38 334 220
0.022065699 0.83899999 0.029420931 1.7473972e-38 335 220
0.023480639 0.83700001 0.029350799 1.7654763e-38 336 220
0.02494818 0.83700001 0.029350799 1.7286341e-38 337 220
0.026352599 0.83499998 0.029280664 1.7375302e-38 338 220
0.027816633 0.83499998 0.029280664 1.6914324e-38 339 220
0.029280664 0.83499998 0.029280664 1.7185156e-38 340 220
0.030744698 0.83499998 0.029280664 1.7000406e-38 341 220
0.03220873 0.83499998 0.029280664 1.6723452e-38 342 220
0.033672765 0.83499998 0.029280664 1.6354671e-38 343 220
0.035136797 0.83499998 0.029280664 1.6535468e-38 344 220
0.036688499 0.83700001 0.029350799 1.6258882e-38 345 220
0.03815604 0.83700001 0.029350799 1.6349278e-38 346 220
0.039718259 0.83899999 0.029420931 1.6349278e-38 347 220
0.041189305 0.83899999 0.029420931 1.6165956e-38 348 220
0.042558659 0.83700001 0.029350799 1.6165956e-38 349 220
0.0440262 0.83700001 0.029350799 1.6164519e-38 350 220
0.045493741 0.83700001 0.029350799 1.5980127e-38 351 220
0.046961278 0.83700001 0.029350799 1.6346759e-38 352 220
0.048428819 0.83700001 0.029350799 1.6346759e-38 353 220
0.050015584 0.83899999 0.029420931 1.6254923e-38 354 220
0.05148663 0.83899999 0.029420931 1.6254923e-38 355 220
0.052957676 0.83899999 0.029420931 1.6163091e-38 356 220
0.054428723 0.83899999 0.029420931 1.6071252e-38 357 220
0.055899773 0.83899999 0.029420931 1.6163089e-38 358 220
0.057370819 0.83899999 0.029420931 1.6347481e-38 359 220
0.058561329 0.83499998 0.029280664 1.6347837e-38 360 220
0.060025364 0.83499998 0.029280664 1.6716259e-38 361 220
0.061489396 0.83499998 0.029280664 1.6350355e-38 362 220
0.062953427 0.83499998 0.029280664 1.6626942e-38 363 220
0.064417459 0.83499998 0.029280664 1.6535465e-38 364 220
0.065723702 0.833 0.029210532 1.6443269e-38 365 220
0.067184225 0.833 0.029210532 1.6261758e-38 366 220
0.068644755 0.833 0.029210532 1.5984812e-38 367 220
0.070105277 0.833 0.029210532 1.6169925e-38 368 220
0.071565807 0.833 0.029210532 1.6539068e-38 369 220
0.073026337 0.833 0.029210532 1.6449384e-38 370 220
0.074308015 0.83099997 0.029140398 1.6264992e-38 371 220
0.075765036 0.83099997 0.029140398 1.6355374e-38 372 220
0.077222057 0.83099997 0.029140398 1.6170981e-38 373 220
0.07867907 0.83099997 0.029140398 1.6352853e-38 374 220
0.080328964 0.833 0.029210532 1.6168462e-38 375 220
0.081789486 0.833 0.029210532 1.5707855e-38 376 220
0.083250016 0.833 0.029210532 1.4601868e-38 377 220
0.084913932 0.83499998 0.029280664 1.2856988e-38 378 220
0.086377963 0.83499998 0.029280664 1.1663109e-38 379 220
-0.14278795 0.83099997 0.027683379 1.1604026e-38 222 221
-0.14133093 0.83099997 0.027683379 1.4370254e-38 223 221
-0.13987392 0.83099997 0.027683379 1.8593986e-38 224 221
-0.1384169 0.83099997 0.027683379 1.914716e-38 225 221
-0.13695987 0.83099997 0.027683379 1.9699981e-38 226 221
-0.13517673 0.829 0.027616752 1.9976568e-38 227 221
-0.13372321 0.829 0.027616752 2.0160966e-38 228 221
-0.13226971 0.829 0.027616752 2.0253161e-38 229 221
-0.13081619 0.829 0.027616752 2.0253159e-38 230 221
-0.12936267 0.829 0.027616752 2.043719e-38 231 221
-0.12790917 0.829 0.027616752 2.0437546e-38 232 221
-0.12706582 0.833 0.027750006 2.0529741e-38 233 221
-0.12590685 0.83499998 0.027816633 2.0346429e-38 234 221
-0.12444282 0.83499998 0.027816633 2.0438625e-38 235 221
-0.12297879 0.83499998 0.027816633 2.0438272e-38 236 221
-0.12151476 0.83499998 0.027816633 2.025388e-38 237 221
-0.12005073 0.83499998 0.027816633 2.0529388e-38 238 221
-0.11858669 0.83499998 0.027816633 2.0529388e-38 239 221
-0.11712266 0.83499998 0.027816633 2.0529744e-38 240 221
-0.11565863 0.83499998 0.027816633 2.0529744e-38 241 221
-0.11419459 0.83499998 0.027816633 2.043719e-38 242 221
-0.11273056 0.83499998 0.027816633 2.0529744e-38 243 221
-0.11126653 0.83499998 0.027816633 2.0438628e-38 244 221
-0.1098025 0.83499998 0.027816633 2.0622659e-38 245 221
-0.10833846 0.83499998 0.027816633 2.0714856e-38 246 221
-0.10687443 0.83499998 0.027816633 2.0714856e-38 247 221
-0.1054104 0.83499998 0.027816633 2.0531541e-38 248 221
-0.10394637 0.83499998 0.027816633 2.0439344e-38 249 221
-0.10248233 0.83499998 0.027816633 2.0622656e-38 250 221
-0.10101829 0.83499998 0.027816633 2.0622656e-38 251 221
-0.099315815 0.833 0.027750006 2.080633e-38 252 221
-0.097855285 0.833 0.027750006 2.080633e-38 253 221
-0.096394755 0.833 0.027750006 2.0714133e-38 254 221
-0.094934233 0.833 0.027750006 2.080633e-38 255 221
-0.093473703 0.833 0.027750006 2.0622656e-38 256 221
-0.092234097 0.83499998 0.027816633 2.0714853e-38 257 221
-0.090770066 0.83499998 0.027816633 2.0531541e-38 258 221
-0.089306027 0.83499998 0.027816633 2.0439344e-38 259 221
-0.087841995 0.83499998 0.027816633 2.0439346e-38 260 221
-0.086377963 0.83499998 0.027816633 2.0439346e-38 261 221
-0.084913932 0.83499998 0.027816633 2.0622307e-38 262 221
-0.083449893 0.83499998 0.027816633 2.0622307e-38 263 221
-0.081985861 0.83499998 0.027816633 2.0622304e-38 264 221
-0.080521829 0.83499998 0.027816633 2.0622304e-38 265 221
-0.079057798 0.83499998 0.027816633 2.0439346e-38 266 221
-0.077593759 0.83499998 0.027816633 2.0346792e-38 267 221
-0.076129727 0.83499998 0.027816633 2.0347148e-38 268 221
-0.074665695 0.83499998 0.027816633 2.0439344e-38 269 221
-0.073201664 0.83499998 0.027816633 2.0438625e-38 270 221
-0.071737625 0.83499998 0.027816633 2.0438625e-38 271 221
-0.070273593 0.83499998 0.027816633 2.0438625e-38 272 221
-0.068809561 0.83499998 0.027816633 2.0346429e-38 273 221
-0.06734553 0.83499998 0.027816633 2.0621218e-38 274 221
-0.065881498 0.83499998 0.027816633 2.0529023e-38 275 221
-0.064417459 0.83499998 0.027816633 2.0253515e-38 276 221
-0.062953427 0.83499998 0.027816633 2.0253515e-38 277 221
-0.061636675 0.83700001 0.02788326 2.0160963e-38 278 221
-0.060169142 0.83700001 0.02788326 2.0160963e-38 279 221
-0.058701597 0.83700001 0.02788326 2.006877e-38 280 221
-0.05723406 0.83700001 0.02788326 2.006877e-38 281 221
-0.055766519 0.83700001 0.02788326 2.025208e-38 282 221
-0.054298978 0.83700001 0.02788326 2.0159883e-38 283 221
-0.052831437 0.83700001 0.02788326 2.0159161e-38 284 221
-0.051363897 0.83700001 0.02788326 2.0066965e-38 285 221
-0.049896359 0.83700001 0.02788326 2.0158445e-38 286 221
-0.048428819 0.83700001 0.02788326 1.9974054e-38 287 221
-0.046961278 0.83700001 0.02788326 1.9973698e-38 288 221
-0.045493741 0.83700001 0.02788326 1.9973698e-38 289 221
-0.043920998 0.83499998 0.027816633 1.9974051e-38 290 221
-0.042456966 0.83499998 0.027816633 1.9974051e-38 291 221
-0.041091122 0.83700001 0.02788326 1.9699259e-38 292 221
-0.039623581 0.83700001 0.02788326 1.9699259e-38 293 221
-0.03815604 0.83700001 0.02788326 1.9881851e-38 294 221
-0.036688499 0.83700001 0.02788326 1.9881851e-38 295 221
-0.035136797 0.83499998 0.027816633 1.9881851e-38 296 221
-0.033672765 0.83499998 0.027816633 1.9974048e-38 297 221
-0.03220873 0.83499998 0.027816633 1.9882571e-38 298 221
-0.030818338 0.83700001 0.02788326 1.9974767e-38 299 221
-0.029350799 0.83700001 0.02788326 1.9974767e-38 300 221
-0.02788326 0.83700001 0.02788326 1.9974767e-38 301 221
-0.026415719 0.83700001 0.02788326 2.0066965e-38 302 221
-0.024888566 0.83499998 0.027816633 2.0159161e-38 303 221
-0.023424532 0.83499998 0.027816633 2.0251715e-38 304 221
-0.021960499 0.83499998 0.027816633 2.0343911e-38 305 221
-0.020496465 0.83499998 0.027816633 2.0343911e-38 306 221
-0.019032432 0.83499998 0.027816633 2.0343911e-38 307 221
-0.017568398 0.83499998 0.027816633 2.015988e-38 308 221
-0.016142938 0.83700001 0.02788326 2.015988e-38 309 221
-0.014675399 0.83700001 0.02788326 2.0159161e-38 310 221
-0.013207859 0.83700001 0.02788326 2.0066965e-38 311 221
-0.011740319 0.83700001 0.02788326 1.997477e-38 312 221
-0.01027278 0.83700001 0.02788326 1.9882574e-38 313 221
-0.0088052405 0.83700001 0.02788326 2.0066246e-38 314 221
-0.0073376996 0.83700001 0.02788326 1.9974051e-38 315 221
-0.0058701597 0.83700001 0.02788326 1.969819e-38 316 221
-0.0044026203 0.83700001 0.02788326 1.9605993e-38 317 221
-0.0029350799 0.83700001 0.02788326 1.9789302e-38 318 221
-0.0014675399 0.83700001 0.02788326 1.9697107e-38 319 221
0 0.83499998 0.027816633 1.9880056e-38 320 221
0.0014640333 0.83499998 0.027816633 1.978786e-38 321 221
0.0029350799 0.83700001 0.02788326 1.9511997e-38 322 221
0.0044026203 0.83700001 0.02788326 1.9511997e-38 323 221
0.0058701597 0.83700001 0.02788326 1.9419081e-38 324 221
0.0073376996 0.83700001 0.02788326 1.9234331e-38 325 221
0.0088052405 0.83700001 0.02788326 1.904922e-38 326 221
0.01027278 0.83700001 0.02788326 1.8772992e-38 327 221
0.011740319 0.83700001 0.02788326 1.8862311e-38 328 221
0.013207859 0.83700001 0.02788326 1.8585724e-38 329 221
0.014675399 0.83700001 0.02788326 1.8584279e-38 330 221
0.016142938 0.83700001 0.02788326 1.8399887e-38 331 221
0.017610481 0.83700001 0.02788326 1.8396648e-38 332 221
0.01907802 0.83700001 0.02788326 1.8119701e-38 333 221
0.020545561 0.83700001 0.02788326 1.8025341e-38 334 221
0.0220131 0.83700001 0.02788326 1.7656918e-38 335 221
0.023480639 0.83700001 0.02788326 1.7654397e-38 336 221
0.02494818 0.83700001 0.02788326 1.7285255e-38 337 221
0.026352599 0.83499998 0.027816633 1.7374581e-38 338 221
0.027816633 0.83499998 0.027816633 1.6821766e-38 339 221
0.029280664 0.83499998 0.027816633 1.718515e-38 340 221
0.030744698 0.83499998 0.027816633 1.6724532e-38 341 221
0.03220873 0.83499998 0.027816633 1.6997522e-38 342 221
0.033672765 0.83499998 0.027816633 1.6628379e-38 343 221
0.035136797 0.83499998 0.027816633 1.6535468e-38 344 221
0.036600832 0.83499998 0.027816633 1.6258882e-38 345 221
0.038064864 0.83499998 0.027816633 1.6350355e-38 346 221
0.039623581 0.83700001 0.02788326 1.6350355e-38 347 221
0.041091122 0.83700001 0.02788326 1.6257789e-38 348 221
0.042558659 0.83700001 0.02788326 1.6165593e-38 349 221
0.0440262 0.83700001 0.02788326 1.6255641e-38 350 221
0.045385033 0.83499998 0.027816633 1.6071248e-38 351 221
0.046849065 0.83499998 0.027816633 1.6163094e-38 352 221
0.048428819 0.83700001 0.02788326 1.5979418e-38 353 221
0.049896359 0.83700001 0.02788326 1.6254926e-38 354 221
0.051363897 0.83700001 0.02788326 1.6254926e-38 355 221
0.052831437 0.83700001 0.02788326 1.6254923e-38 356 221
0.054298978 0.83700001 0.02788326 1.6438599e-38 357 221
0.055766519 0.83700001 0.02788326 1.6163092e-38 358 221
0.05723406 0.83700001 0.02788326 1.6163092e-38 359 221
0.058561329 0.83499998 0.027816633 1.616489e-38 360 221
0.060025364 0.83499998 0.027816633 1.6349283e-38 361 221
0.061489396 0.83499998 0.027816633 1.6259238e-38 362 221
0.062802643 0.833 0.027750006 1.6259238e-38 363 221
0.064263172 0.833 0.027750006 1.6076292e-38 364 221
0.065723702 0.833 0.027750006 1.6260323e-38 365 221
0.067184225 0.833 0.027750006 1.5070065e-38 366 221
0.068644755 0.833 0.027750006 1.5531042e-38 367 221
0.070105277 0.833 0.027750006 1.6080976e-38 368 221
0.071565807 0.833 0.027750006 1.5896585e-38 369 221
0.072850995 0.83099997 0.027683379 1.5987686e-38 370 221
0.074308015 0.83099997 0.027683379 1.5526708e-38 371 221
0.075765036 0.83099997 0.027683379 1.6260642e-38 372 221
0.077222057 0.83099997 0.027683379 1.6444673e-38 373 221
0.07867907 0.83099997 0.027683379 1.6168812e-38 374 221
0.080136091 0.83099997 0.027683379 1.598442e-38 375 221
0.081593119 0.83099997 0.027683379 1.5982291e-38 376 221
0.082650378 0.82700002 0.027550125 1.5429117e-38 377 221
0.084100381 0.82700002 0.027550125 1.4969934e-38 378 221
0.085550398 0.82700002 0.027550125 1.4693707e-38 379 221
0.0870004 0.82700002 0.027550125 1.3132849e-38 380 221
0.088450409 0.82700002 0.027550125 1.1938615e-38 381 221
0.089900412 0.82700002 0.027550125 1.0285576e-38 382 221
0.091350421 0.82700002 0.027550125 9.6427271e-39 383 221
-0.14424497 0.83099997 0.026226358 7.1962814e-39 221 222
-0.14278795 0.83099997 0.026226358 1.4910484e-38 222 222
-0.14099079 0.829 0.026163239 1.7768188e-38 223 222
-0.13953727 0.829 0.026163239 1.9329398e-38 224 222
-0.13808376 0.829 0.026163239 1.9421952e-38 225 222
-0.13663025 0.829 0.026163239 1.9699625e-38 226 222
-0.13517673 0.829 0.026163239 1.997657e-38 227 222
-0.13372321 0.829 0.026163239 2.025208e-38 228 222
-0.13226971 0.829 0.026163239 2.0344275e-38 229 222
-0.13081619 0.829 0.026163239 2.0253159e-38 230 222
-0.12936267 0.829 0.026163239 2.0253159e-38 231 222
-0.12790917 0.829 0.026163239 2.0437546e-38 232 222
-0.12676074 0.83099997 0.026226358 2.0529741e-38 233 222
-0.12560529 0.833 0.02628948 2.0346429e-38 234 222
-0.12414476 0.833 0.02628948 2.0346429e-38 235 222
-0.12268423 0.833 0.02628948 2.0437193e-38 236 222
-0.12122371 0.833 0.02628948 2.0253161e-38 237 222
-0.11976318 0.833 0.02628948 2.0437195e-38 238 222
-0.11830266 0.833 0.02628948 2.0529391e-38 239 222
-0.11684213 0.833 0.02628948 2.043719e-38 240 222
-0.1153816 0.833 0.02628948 2.043719e-38 241 222
-0.11392108 0.833 0.02628948 2.0529023e-38 242 222
-0.11246055 0.833 0.02628948 2.0621218e-38 243 222
-0.11126653 0.83499998 0.026352599 2.0621937e-38 244 222
-0.1098025 0.83499998 0.026352599 2.0621937e-38 245 222
-0.10833846 0.83499998 0.026352599 2.0622656e-38 246 222
-0.10687443 0.83499998 0.026352599 2.0714853e-38 247 222
-0.1054104 0.83499998 0.026352599 2.0531541e-38 248 222
-0.10394637 0.83499998 0.026352599 2.0531541e-38 249 222
-0.10248233 0.83499998 0.026352599 2.0622653e-38 250 222
-0.10077634 0.833 0.02628948 2.0715209e-38 251 222
-0.099315815 0.833 0.02628948 2.0807404e-38 252 222
-0.097855285 0.833 0.02628948 2.0715209e-38 253 222
-0.096394755 0.833 0.02628948 2.080633e-38 254 222
-0.094934233 0.833 0.02628948 2.0714133e-38 255 222
-0.093473703 0.833 0.02628948 2.0622659e-38 256 222
-0.092234097 0.83499998 0.026352599 2.0622659e-38 257 222
-0.090770066 0.83499998 0.026352599 2.0531541e-38 258 222
-0.089306027 0.83499998 0.026352599 2.0439344e-38 259 222
-0.087841995 0.83499998 0.026352599 2.0622659e-38 260 222
-0.086377963 0.83499998 0.026352599 2.0622659e-38 261 222
-0.084913932 0.83499998 0.026352599 2.0622304e-38 262 222
-0.083449893 0.83499998 0.026352599 2.0622304e-38 263 222
-0.081985861 0.83499998 0.026352599 2.0622304e-38 264 222
-0.080521829 0.83499998 0.026352599 2.0622304e-38 265 222
-0.079057798 0.83499998 0.026352599 2.0622659e-38 266 222
-0.077593759 0.83499998 0.026352599 2.0438628e-38 267 222
-0.076129727 0.83499998 0.026352599 2.0438628e-38 268 222
-0.074665695 0.83499998 0.026352599 2.0438628e-38 269 222
-0.073201664 0.83499998 0.026352599 2.062194e-38 270 222
-0.071737625 0.83499998 0.026352599 2.062194e-38 271 222
-0.070273593 0.83499998 0.026352599 2.0529741e-38 272 222
-0.068809561 0.83499998 0.026352599 2.0529741e-38 273 222
-0.06734553 0.83499998 0.026352599 2.0529744e-38 274 222
-0.065881498 0.83499998 0.026352599 2.0529744e-38 275 222
-0.064417459 0.83499998 0.026352599 2.043719e-38 276 222
-0.062953427 0.83499998 0.026352599 2.0160963e-38 277 222
-0.061489396 0.83499998 0.026352599 2.0344631e-38 278 222
-0.060025364 0.83499998 0.026352599 2.0344631e-38 279 222
-0.058701597 0.83700001 0.026415719 2.016096e-38 280 222
-0.05723406 0.83700001 0.026415719 2.0068763e-38 281 222
-0.055766519 0.83700001 0.026415719 2.0251359e-38 282 222
-0.05416923 0.83499998 0.026352599 2.0159164e-38 283 222
-0.052705199 0.83499998 0.026352599 2.0159164e-38 284 222
-0.051241163 0.83499998 0.026352599 1.9974773e-38 285 222
