# .PCD v.7 - Point Cloud Data file format
FIELDS x y z rgb imX imY
SIZE 4 4 4 4 4 4
TYPE F F F F F F
COUNT 1 1 1 1 1 1
WIDTH 604
HEIGHT 1
VIEWPOINT 0 0 0 1 0 0 0
POINTS 604
DATA ascii
0.00266156 0.759 -0.059885096 1.5914234e-38 322 285
0.0039818203 0.75700003 -0.059727304 1.600643e-38 323 285
0.0053090933 0.75700003 -0.059727304 1.5822414e-38 324 285
0.0066363667 0.75700003 -0.059727304 1.591461e-38 325 285
0.0079636406 0.75700003 -0.059727304 1.5551589e-38 326 285
0.0092909131 0.75700003 -0.059727304 1.7211109e-38 327 285
0 0.75700003 -0.061054576 1.5459727e-38 320 286
0.0013272733 0.75700003 -0.061054576 1.5736313e-38 321 286
0.0026545466 0.75700003 -0.061054576 1.6654317e-38 322 286
0.0039818203 0.75700003 -0.061054576 1.6654317e-38 323 286
0.0053090933 0.75700003 -0.061054576 1.6653604e-38 324 286
0.0066363667 0.75700003 -0.061054576 1.6653604e-38 325 286
0.0079636406 0.75700003 -0.061054576 1.6468855e-38 326 286
0.0092663663 0.755 -0.060893264 1.6745444e-38 327 286
0.010590133 0.755 -0.060893264 1.6285908e-38 328 286
0.01189812 0.75400001 -0.060812615 1.683908e-38 329 286
0.013220133 0.75400001 -0.060812615 1.6294895e-38 330 286
-0.0013272733 0.75700003 -0.062381849 1.4549643e-38 319 287
0 0.75700003 -0.062381849 1.6008948e-38 320 287
0.0013272733 0.75700003 -0.062381849 1.6285894e-38 321 287
0.0026545466 0.75700003 -0.062381849 1.6745797e-38 322 287
0.0039818203 0.75700003 -0.062381849 1.6745797e-38 323 287
0.0053090933 0.75700003 -0.062381849 1.665432e-38 324 287
0.0066363667 0.75700003 -0.062381849 1.665432e-38 325 287
0.0079425992 0.755 -0.062217031 1.6653598e-38 326 287
0.0092663663 0.755 -0.062217031 1.6561403e-38 327 287
0.010590133 0.755 -0.062217031 1.646849e-38 328 287
0.01189812 0.75400001 -0.062134624 1.6191544e-38 329 287
0.013220133 0.75400001 -0.062134624 1.573309e-38 330 287
0.014542146 0.75400001 -0.062134624 1.6286263e-38 331 287
0.01586416 0.75400001 -0.062134624 1.6110151e-38 332 287
0.017186172 0.75400001 -0.062134624 1.7216857e-38 333 287
0.018508185 0.75400001 -0.062134624 1.7039663e-38 334 287
-0.0026545466 0.75700003 -0.063709125 1.5735957e-38 318 288
-0.0013272733 0.75700003 -0.063709125 1.5367534e-38 319 288
0 0.75700003 -0.063709125 1.665432e-38 320 288
0.0013272733 0.75700003 -0.063709125 1.665432e-38 321 288
0.0026545466 0.75700003 -0.063709125 1.6746153e-38 322 288
0.0039712996 0.755 -0.063540794 1.6653598e-38 323 288
0.0052950666 0.755 -0.063540794 1.6654673e-38 324 288
0.0066188332 0.755 -0.063540794 1.6654673e-38 325 288
0.0079425992 0.755 -0.063540794 1.665467e-38 326 288
0.0092663663 0.755 -0.063540794 1.665467e-38 327 288
0.010576107 0.75400001 -0.06345664 1.6746153e-38 328 288
0.01189812 0.75400001 -0.06345664 1.6746153e-38 329 288
0.013220133 0.75400001 -0.06345664 1.6746519e-38 330 288
0.014542146 0.75400001 -0.06345664 1.6469933e-38 331 288
0.01586416 0.75400001 -0.06345664 1.6468137e-38 332 288
0.017186172 0.75400001 -0.06345664 1.600716e-38 333 288
0.018508185 0.75400001 -0.06345664 1.6100074e-38 334 288
0.019830201 0.75400001 -0.06345664 1.7943987e-38 335 288
-0.0026545466 0.75700003 -0.065036394 1.601003e-38 318 289
-0.0013237667 0.755 -0.064864561 1.6194061e-38 319 289
0 0.755 -0.064864561 1.6654323e-38 320 289
0.0013237667 0.755 -0.064864561 1.6654323e-38 321 289
0.0026475333 0.755 -0.064864561 1.6654317e-38 322 289
0.0039712996 0.755 -0.064864561 1.6654317e-38 323 289
0.0052950666 0.755 -0.064864561 1.6654673e-38 324 289
0.0066188332 0.755 -0.064864561 1.6654673e-38 325 289
0.00793208 0.75400001 -0.064778648 1.6654673e-38 326 289
0.0092540924 0.75400001 -0.064778648 1.6654673e-38 327 289
0.010576107 0.75400001 -0.064778648 1.6654317e-38 328 289
0.01189812 0.75400001 -0.064778648 1.6654317e-38 329 289
0.013220133 0.75400001 -0.064778648 1.6745797e-38 330 289
0.014542146 0.75400001 -0.064778648 1.6745797e-38 331 289
0.01586416 0.75400001 -0.064778648 1.6652882e-38 332 289
0.017186172 0.75400001 -0.064778648 1.628374e-38 333 289
0.018508185 0.75400001 -0.064778648 1.6192626e-38 334 289
0.019830201 0.75400001 -0.064778648 1.656105e-38 335 289
0.021152213 0.75400001 -0.064778648 1.5922516e-38 336 289
0.022474226 0.75400001 -0.064778648 1.6660441e-38 337 289
0.02379624 0.75400001 -0.064778648 1.6574006e-38 338 289
-0.0039555198 0.75199997 -0.06592533 1.5275704e-38 317 290
-0.0026370131 0.75199997 -0.06592533 1.6378093e-38 318 290
-0.0013220133 0.75400001 -0.066100664 1.6470289e-38 319 290
0 0.75400001 -0.066100664 1.6653248e-38 320 290
0.0013220133 0.75400001 -0.066100664 1.6653248e-38 321 290
0.0026440267 0.75400001 -0.066100664 1.6470289e-38 322 290
0.0039555198 0.75199997 -0.06592533 1.6470289e-38 323 290
0.0052740262 0.75199997 -0.06592533 1.6837269e-38 324 290
0.0065925326 0.75199997 -0.06592533 1.665288e-38 325 290
0.0079110395 0.75199997 -0.06592533 1.6470289e-38 326 290
0.0092295464 0.75199997 -0.06592533 1.6470289e-38 327 290
0.010548052 0.75199997 -0.06592533 1.6470286e-38 328 290
0.011866559 0.75199997 -0.06592533 1.6470286e-38 329 290
0.013185065 0.75199997 -0.06592533 1.6653598e-38 330 290
0.014503572 0.75199997 -0.06592533 1.6653598e-38 331 290
0.015822079 0.75199997 -0.06592533 1.6653601e-38 332 290
0.017140586 0.75199997 -0.06592533 1.6653601e-38 333 290
0.018459093 0.75199997 -0.06592533 1.6653967e-38 334 290
0.0197776 0.75199997 -0.06592533 1.6469936e-38 335 290
0.021096105 0.75199997 -0.06592533 1.6285187e-38 336 290
0.022414612 0.75199997 -0.06592533 1.6100796e-38 337 290
0.02363844 0.74900001 -0.065662332 1.6009682e-38 338 290
0.024951685 0.74900001 -0.065662332 1.628591e-38 339 290
-0.0052880533 0.75400001 -0.067422673 1.6471008e-38 316 291
-0.0039555198 0.75199997 -0.067243837 1.6286617e-38 317 291
-0.0026370131 0.75199997 -0.067243837 1.6653601e-38 318 291
-0.0013185065 0.75199997 -0.067243837 1.6561406e-38 319 291
0 0.75199997 -0.067243837 1.6836916e-38 320 291
0.0013185065 0.75199997 -0.067243837 1.6652885e-38 321 291
0.0026370131 0.75199997 -0.067243837 1.6561403e-38 322 291
0.003945 0.75 -0.067065001 1.6653598e-38 323 291
0.00526 0.75 -0.067065001 1.6837269e-38 324 291
0.006575 0.75 -0.067065001 1.6837269e-38 325 291
0.00789 0.75 -0.067065001 1.6470286e-38 326 291
0.0092049995 0.75 -0.067065001 1.6654317e-38 327 291
0.01052 0.75 -0.067065001 1.6654317e-38 328 291
0.011835 0.75 -0.067065001 1.6470286e-38 329 291
0.01315 0.75 -0.067065001 1.6653598e-38 330 291
0.014503572 0.75199997 -0.067243837 1.6653598e-38 331 291
0.015822079 0.75199997 -0.067243837 1.6653598e-38 332 291
0.017095 0.75 -0.067065001 1.6653598e-38 333 291
0.018409999 0.75 -0.067065001 1.6652882e-38 334 291
0.019724999 0.75 -0.067065001 1.6836914e-38 335 291
0.02104 0.75 -0.067065001 1.6378093e-38 336 291
0.022355 0.75 -0.067065001 1.6193342e-38 337 291
0.02363844 0.74900001 -0.066975579 1.6377013e-38 338 291
0.024951685 0.74900001 -0.066975579 1.6469209e-38 339 291
0.026194798 0.74699998 -0.066796735 1.6194066e-38 340 291
0.027504537 0.74699998 -0.066796735 1.6655046e-38 341 291
0.028814279 0.74699998 -0.066796735 1.6382422e-38 342 291
-0.0079425992 0.755 -0.068835862 1.5290455e-38 314 292
-0.0066100666 0.75400001 -0.068744689 1.2339834e-38 315 292
-0.0052529867 0.74900001 -0.068288825 1.6102948e-38 316 292
-0.0039397399 0.74900001 -0.068288825 1.6195144e-38 317 292
-0.0026264933 0.74900001 -0.068288825 1.6378093e-38 318 292
-0.0013132467 0.74900001 -0.068288825 1.6378093e-38 319 292
0 0.74900001 -0.068288825 1.6652529e-38 320 292
0.0013132467 0.74900001 -0.068288825 1.6652529e-38 321 292
0.0026264933 0.74900001 -0.068288825 1.6653601e-38 322 292
0.003945 0.75 -0.068379998 1.6653601e-38 323 292
0.00526 0.75 -0.068379998 1.6653954e-38 324 292
0.006575 0.75 -0.068379998 1.674615e-38 325 292
0.00789 0.75 -0.068379998 1.6654317e-38 326 292
0.0092049995 0.75 -0.068379998 1.6470286e-38 327 292
0.01052 0.75 -0.068379998 1.6470286e-38 328 292
0.011835 0.75 -0.068379998 1.6654317e-38 329 292
0.01315 0.75 -0.068379998 1.6470642e-38 330 292
0.014465 0.75 -0.068379998 1.6470642e-38 331 292
0.01575896 0.74900001 -0.068288825 1.665288e-38 332 292
0.017072206 0.74900001 -0.068288825 1.665288e-38 333 292
0.018385453 0.74900001 -0.068288825 1.665288e-38 334 292
0.0196987 0.74900001 -0.068288825 1.6837269e-38 335 292
0.021011947 0.74900001 -0.068288825 1.6561403e-38 336 292
0.022325192 0.74900001 -0.068288825 1.6561403e-38 337 292
0.02363844 0.74900001 -0.068288825 1.6653601e-38 338 292
0.024885058 0.74699998 -0.068106472 1.6745797e-38 339 292
0.026194798 0.74699998 -0.068106472 1.6469933e-38 340 292
0.027504537 0.74699998 -0.068106472 1.6193345e-38 341 292
0.028814279 0.74699998 -0.068106472 1.6191544e-38 342 292
0.030124018 0.74699998 -0.068106472 1.628374e-38 343 292
0.031433757 0.74699998 -0.068106472 1.5737759e-38 344 292
0.032743499 0.74699998 -0.068106472 1.6475324e-38 345 292
0.034053236 0.74699998 -0.068106472 1.6208814e-38 346 292
-0.00793208 0.75400001 -0.070066705 1.4370644e-38 314 293
-0.0066100666 0.75400001 -0.070066705 1.0129643e-38 315 293
-0.0052529867 0.74900001 -0.069602072 1.4810763e-38 316 293
-0.0039397399 0.74900001 -0.069602072 1.5824917e-38 317 293
-0.0026264933 0.74900001 -0.069602072 1.6651805e-38 318 293
-0.0013132467 0.74900001 -0.069602072 1.6928393e-38 319 293
0 0.74900001 -0.069602072 1.6560685e-38 320 293
0.0013132467 0.74900001 -0.069602072 1.6560685e-38 321 293
0.0026264933 0.74900001 -0.069602072 1.665288e-38 322 293
0.0039397399 0.74900001 -0.069602072 1.6837269e-38 323 293
0.0052529867 0.74900001 -0.069602072 1.6653598e-38 324 293
0.0065662335 0.74900001 -0.069602072 1.6653598e-38 325 293
0.0078794798 0.74900001 -0.069602072 1.6654317e-38 326 293
0.0091927266 0.74900001 -0.069602072 1.6470286e-38 327 293
0.010505973 0.74900001 -0.069602072 1.6653598e-38 328 293
0.01181922 0.74900001 -0.069602072 1.6746153e-38 329 293
0.013132467 0.74900001 -0.069602072 1.6653954e-38 330 293
0.014445714 0.74900001 -0.069602072 1.6561759e-38 331 293
0.015716879 0.74699998 -0.069416218 1.6837267e-38 332 293
0.017026618 0.74699998 -0.069416218 1.6653236e-38 333 293
0.018336359 0.74699998 -0.069416218 1.6653236e-38 334 293
0.019646099 0.74699998 -0.069416218 1.6653236e-38 335 293
0.020955838 0.74699998 -0.069416218 1.6560683e-38 336 293
0.022265578 0.74699998 -0.069416218 1.665288e-38 337 293
0.023575317 0.74699998 -0.069416218 1.6470286e-38 338 293
0.024885058 0.74699998 -0.069416218 1.6470286e-38 339 293
0.026159734 0.74599999 -0.069323286 1.6653954e-38 340 293
0.027467718 0.74599999 -0.069323286 1.6653954e-38 341 293
0.028814279 0.74699998 -0.069416218 1.6653236e-38 342 293
0.030124018 0.74699998 -0.069416218 1.6929462e-38 343 293
0.031433757 0.74699998 -0.069416218 1.6746872e-38 344 293
0.032743499 0.74699998 -0.069416218 1.6378091e-38 345 293
0.034007654 0.74599999 -0.069323286 1.6101149e-38 346 293
0.03531564 0.74599999 -0.069323286 1.6377737e-38 347 293
0.036623627 0.74599999 -0.069323286 1.6014716e-38 348 293
-0.0065925326 0.75199997 -0.071199358 1.1324228e-38 315 294
-0.00526 0.75 -0.071010001 1.3246682e-38 316 294
-0.0039397399 0.74900001 -0.070915319 1.4168638e-38 317 294
-0.0026264933 0.74900001 -0.070915319 1.4630708e-38 318 294
-0.0013132467 0.74900001 -0.070915319 1.5091686e-38 319 294
0 0.74900001 -0.070915319 1.5643055e-38 320 294
0.0013097399 0.74699998 -0.070725955 1.5827806e-38 321 294
0.0026194798 0.74699998 -0.070725955 1.610367e-38 322 294
0.0039292197 0.74699998 -0.070725955 1.610367e-38 323 294
0.0052389596 0.74699998 -0.070725955 1.6469933e-38 324 294
0.0065486995 0.74699998 -0.070725955 1.6469933e-38 325 294
0.0078584393 0.74699998 -0.070725955 1.6653601e-38 326 294
0.0091681797 0.74699998 -0.070725955 1.6653601e-38 327 294
0.010477919 0.74699998 -0.070725955 1.6653601e-38 328 294
0.011787659 0.74699998 -0.070725955 1.6653601e-38 329 294
0.013097399 0.74699998 -0.070725955 1.6470286e-38 330 294
0.014407139 0.74699998 -0.070725955 1.6378091e-38 331 294
0.015716879 0.74699998 -0.070725955 1.6561403e-38 332 294
0.017026618 0.74699998 -0.070725955 1.6561403e-38 333 294
0.018311813 0.74599999 -0.070631281 1.6561406e-38 334 294
0.019619798 0.74599999 -0.070631281 1.6561406e-38 335 294
0.020927785 0.74599999 -0.070631281 1.6560683e-38 336 294
0.022235774 0.74599999 -0.070631281 1.665288e-38 337 294
0.023543758 0.74599999 -0.070631281 1.6653954e-38 338 294
0.024851745 0.74599999 -0.070631281 1.6653954e-38 339 294
0.026089599 0.74400002 -0.070441924 1.6653954e-38 340 294
0.027394081 0.74400002 -0.070441924 1.6653954e-38 341 294
0.028775707 0.74599999 -0.070631281 1.6561403e-38 342 294
0.03008369 0.74599999 -0.070631281 1.6746153e-38 343 294
0.031391677 0.74599999 -0.070631281 1.6471005e-38 344 294
0.032699663 0.74599999 -0.070631281 1.6286614e-38 345 294
0.034007654 0.74599999 -0.070631281 1.6376294e-38 346 294
0.03531564 0.74599999 -0.070631281 1.6007513e-38 347 294
0.036623627 0.74599999 -0.070631281 1.5640174e-38 348 294
0.03793161 0.74599999 -0.070631281 1.6193348e-38 349 294
0.039239597 0.74599999 -0.070631281 1.583392e-38 350 294
0.040438879 0.74400002 -0.070441924 1.6940268e-38 351 294
0.04174336 0.74400002 -0.070441924 1.6396446e-38 352 294
-0.0065925326 0.75199997 -0.072517857 1.2343787e-38 315 295
-0.00526 0.75 -0.072324999 1.2513796e-38 316 295
-0.0039397399 0.74900001 -0.072228566 1.1684395e-38 317 295
-0.0026264933 0.74900001 -0.072228566 1.3063379e-38 318 295
-0.0013132467 0.74900001 -0.072228566 1.3524357e-38 319 295
0 0.74900001 -0.072228566 1.3985692e-38 320 295
0.0013097399 0.74699998 -0.072035693 1.4538865e-38 321 295
0.0026194798 0.74699998 -0.072035693 1.555014e-38 322 295
0.0039292197 0.74699998 -0.072035693 1.5919283e-38 323 295
0.0052389596 0.74699998 -0.072035693 1.6378456e-38 324 295
0.0065486995 0.74699998 -0.072035693 1.6286261e-38 325 295
0.0078584393 0.74699998 -0.072035693 1.6378093e-38 326 295
0.0091681797 0.74699998 -0.072035693 1.6285896e-38 327 295
0.010477919 0.74699998 -0.072035693 1.6561403e-38 328 295
0.011771879 0.74599999 -0.07193926 1.6561403e-38 329 295
0.013079867 0.74599999 -0.07193926 1.6653598e-38 330 295
0.014387853 0.74599999 -0.07193926 1.6561403e-38 331 295
0.015695838 0.74599999 -0.07193926 1.6561403e-38 332 295
0.017003827 0.74599999 -0.07193926 1.6653598e-38 333 295
0.01826272 0.74400002 -0.071746401 1.6653598e-38 334 295
0.019567199 0.74400002 -0.071746401 1.6561403e-38 335 295
0.020815572 0.74199998 -0.071553528 1.6561406e-38 336 295
0.022116546 0.74199998 -0.071553528 1.6561406e-38 337 295
0.023480639 0.74400002 -0.071746401 1.6561406e-38 338 295
0.02478512 0.74400002 -0.071746401 1.6561406e-38 339 295
0.026019465 0.74199998 -0.071553528 1.6561406e-38 340 295
0.027283618 0.741 -0.071457103 1.6561406e-38 341 295
0.028582839 0.741 -0.071457103 1.6470286e-38 342 295
0.03008369 0.74599999 -0.07193926 1.6470286e-38 343 295
0.031391677 0.74599999 -0.07193926 1.6470286e-38 344 295
0.032699663 0.74599999 -0.07193926 1.6378091e-38 345 295
0.033916477 0.74400002 -0.071746401 1.6469209e-38 346 295
0.035220962 0.74400002 -0.071746401 1.6561406e-38 347 295
0.036525439 0.74400002 -0.071746401 1.6561053e-38 348 295
0.037829921 0.74400002 -0.071746401 1.6561053e-38 349 295
0.039134398 0.74400002 -0.071746401 1.6192992e-38 350 295
0.040438879 0.74400002 -0.071746401 1.60086e-38 351 295
0.041462827 0.73900002 -0.07126423 1.5553012e-38 352 295
0.042758539 0.73900002 -0.07126423 1.6567522e-38 353 295
0.044054255 0.73900002 -0.07126423 1.5475935e-38 354 295
-0.0052529867 0.74900001 -0.073541813 1.3254588e-38 316 296
-0.0039397399 0.74900001 -0.073541813 1.131848e-38 317 296
-0.0026264933 0.74900001 -0.073541813 1.2878618e-38 318 296
-0.0013097399 0.74699998 -0.073345438 1.3063011e-38 319 296
0 0.74699998 -0.073345438 1.2972263e-38 320 296
0.0013097399 0.74699998 -0.073345438 1.3248848e-38 321 296
0.0026194798 0.74699998 -0.073345438 1.3984262e-38 322 296
0.0039239596 0.74599999 -0.073247254 1.4629632e-38 323 296
0.0052319462 0.74599999 -0.073247254 1.4998771e-38 324 296
0.0065399334 0.74599999 -0.073247254 1.5090967e-38 325 296
0.0078479191 0.74599999 -0.073247254 1.5917481e-38 326 296
0.0091559067 0.74599999 -0.073247254 1.5917481e-38 327 296
0.010407786 0.74199998 -0.072854504 1.6378093e-38 328 296
0.01170876 0.74199998 -0.072854504 1.6285896e-38 329 296
0.013009733 0.74199998 -0.072854504 1.6561403e-38 330 296
0.014310705 0.74199998 -0.072854504 1.6469206e-38 331 296
0.015611678 0.74199998 -0.072854504 1.6469206e-38 332 296
0.016912652 0.74199998 -0.072854504 1.6561403e-38 333 296
0.018213626 0.74199998 -0.072854504 1.6561406e-38 334 296
0.019488299 0.741 -0.072756313 1.6561406e-38 335 296
0.020787518 0.741 -0.072756313 1.6561406e-38 336 296
0.022116546 0.74199998 -0.072854504 1.6561406e-38 337 296
0.023417519 0.74199998 -0.072854504 1.6468853e-38 338 296
0.024718491 0.74199998 -0.072854504 1.656105e-38 339 296
0.025984399 0.741 -0.072756313 1.6469209e-38 340 296
0.027283618 0.741 -0.072756313 1.6653601e-38 341 296
0.028582839 0.741 -0.072756313 1.6470286e-38 342 296
0.029922385 0.74199998 -0.072854504 1.6378091e-38 343 296
0.031223357 0.74199998 -0.072854504 1.6469206e-38 344 296
0.032524332 0.74199998 -0.072854504 1.6469206e-38 345 296
0.033825304 0.74199998 -0.072854504 1.6469209e-38 346 296
0.03512628 0.74199998 -0.072854504 1.6469209e-38 347 296
0.036427252 0.74199998 -0.072854504 1.6468855e-38 348 296
0.037728224 0.74199998 -0.072854504 1.6561053e-38 349 296
0.0390292 0.74199998 -0.072854504 1.6193345e-38 350 296
0.040330172 0.74199998 -0.072854504 1.6008954e-38 351 296
0.041462827 0.73900002 -0.072559945 1.5916033e-38 352 296
0.042758539 0.73900002 -0.072559945 1.6008229e-38 353 296
0.044054255 0.73900002 -0.072559945 1.5003087e-38 354 296
0.045349967 0.73900002 -0.072559945 1.6477857e-38 355 296
0.046771921 0.741 -0.072756313 1.5297675e-38 356 296
-0.0013097399 0.74699998 -0.074655175 1.3064083e-38 319 297
0 0.74699998 -0.074655175 1.260277e-38 320 297
0.0013097399 0.74699998 -0.074655175 1.260277e-38 321 297
0.0026159731 0.74599999 -0.074555233 1.2787165e-38 322 297
0.0039239596 0.74599999 -0.074555233 1.3155946e-38 323 297
0.0052319462 0.74599999 -0.074555233 1.36162e-38 324 297
0.0065223998 0.74400002 -0.074355356 1.3985341e-38 325 297
0.0078268806 0.74400002 -0.074355356 1.4996967e-38 326 297
0.0091313599 0.74400002 -0.074355356 1.5365749e-38 327 297
0.010407786 0.74199998 -0.074155472 1.5827436e-38 328 297
0.01169298 0.741 -0.074055538 1.5827436e-38 329 297
0.0129922 0.741 -0.074055538 1.6286611e-38 330 297
0.01429142 0.741 -0.074055538 1.6286611e-38 331 297
0.01559064 0.741 -0.074055538 1.6378091e-38 332 297
0.016889861 0.741 -0.074055538 1.6378091e-38 333 297
0.018189078 0.741 -0.074055538 1.6561406e-38 334 297
0.019488299 0.741 -0.074055538 1.6561406e-38 335 297
0.020787518 0.741 -0.074055538 1.656105e-38 336 297
0.02208674 0.741 -0.074055538 1.6468853e-38 337 297
0.023385961 0.741 -0.074055538 1.6468853e-38 338 297
0.024685178 0.741 -0.074055538 1.656105e-38 339 297
0.025914267 0.73900002 -0.073855661 1.6378093e-38 340 297
0.027209979 0.73900002 -0.073855661 1.6470289e-38 341 297
0.028505694 0.73900002 -0.073855661 1.6561403e-38 342 297
0.029801406 0.73900002 -0.073855661 1.6561403e-38 343 297
0.03109712 0.73900002 -0.073855661 1.6469206e-38 344 297
0.032480497 0.741 -0.074055538 1.6469206e-38 345 297
0.033779722 0.741 -0.074055538 1.6469209e-38 346 297
0.035078939 0.741 -0.074055538 1.6469209e-38 347 297
0.036378156 0.741 -0.074055538 1.6469209e-38 348 297
0.037677377 0.741 -0.074055538 1.6469209e-38 349 297
0.038976599 0.741 -0.074055538 1.6285894e-38 350 297
0.04027582 0.741 -0.074055538 1.6285894e-38 351 297
0.041406717 0.73799998 -0.073755711 1.6285896e-38 352 297
0.042700678 0.73799998 -0.073755711 1.6285896e-38 353 297
0.044054255 0.73900002 -0.073855661 1.5274635e-38 354 297
0.045349967 0.73900002 -0.073855661 1.4629266e-38 355 297
0.046771921 0.741 -0.074055538 1.3722791e-38 356 297
0.048136011 0.74199998 -0.074155472 1.6027682e-38 357 297
0.0026159731 0.74599999 -0.07586322 1.2695323e-38 322 298
0.0039134403 0.74400002 -0.075659841 1.2787518e-38 323 298
0.0052179201 0.74400002 -0.075659841 1.2603126e-38 324 298
0.0065048663 0.74199998 -0.075456448 1.2879714e-38 325 298
0.0078058392 0.74199998 -0.075456448 1.3247773e-38 326 298
0.009106813 0.74199998 -0.075456448 1.3616556e-38 327 298
0.010393759 0.741 -0.075354755 1.398641e-38 328 298
0.01169298 0.741 -0.075354755 1.4447389e-38 329 298
0.0129922 0.741 -0.075354755 1.5274986e-38 330 298
0.01429142 0.741 -0.075354755 1.5735604e-38 331 298
0.01559064 0.741 -0.075354755 1.6560683e-38 332 298
0.016889861 0.741 -0.075354755 1.6929465e-38 333 298
0.018189078 0.741 -0.075354755 1.6653598e-38 334 298
0.019488299 0.741 -0.075354755 1.6469206e-38 335 298
0.020731414 0.73900002 -0.075151369 1.6469206e-38 336 298
0.022027127 0.73900002 -0.075151369 1.6469206e-38 337 298
0.023291279 0.73799998 -0.075049676 1.6469206e-38 338 298
0.024585238 0.73799998 -0.075049676 1.6469206e-38 339 298
0.025879199 0.73799998 -0.075049676 1.6561403e-38 340 298
0.027173158 0.73799998 -0.075049676 1.6561403e-38 341 298
0.028467119 0.73799998 -0.075049676 1.6469209e-38 342 298
0.029761078 0.73799998 -0.075049676 1.6469209e-38 343 298
0.031055039 0.73799998 -0.075049676 1.6560685e-38 344 298
0.032348998 0.73799998 -0.075049676 1.646849e-38 345 298
0.033642959 0.73799998 -0.075049676 1.6651802e-38 346 298
0.034936916 0.73799998 -0.075049676 1.6651802e-38 347 298
0.036230877 0.73799998 -0.075049676 1.637701e-38 348 298
0.037524838 0.73799998 -0.075049676 1.6469206e-38 349 298
0.038818799 0.73799998 -0.075049676 1.6377007e-38 350 298
0.040112756 0.73799998 -0.075049676 1.6377007e-38 351 298
0.041406717 0.73799998 -0.075049676 1.6101502e-38 352 298
0.042700678 0.73799998 -0.075049676 1.6193698e-38 353 298
0.044054255 0.73900002 -0.075151369 1.5089518e-38 354 298
0.045349967 0.73900002 -0.075151369 1.4167562e-38 355 298
0.046645679 0.73900002 -0.075151369 1.2699286e-38 356 298
0.048071139 0.741 -0.075354755 1.4727589e-38 357 298
0.04957024 0.74400002 -0.075659841 1.474702e-38 358 298
0.0039134403 0.74400002 -0.076964319 1.2512364e-38 323 299
0.0052179201 0.74400002 -0.076964319 1.2420181e-38 324 299
0.0065048663 0.74199998 -0.076757424 1.2420181e-38 325 299
0.0078058392 0.74199998 -0.076757424 1.2604219e-38 326 299
0.009106813 0.74199998 -0.076757424 1.2512023e-38 327 299
0.010393759 0.741 -0.076653972 1.3155946e-38 328 299
0.01169298 0.741 -0.076653972 1.352473e-38 329 299
0.0129922 0.741 -0.076653972 1.4169723e-38 330 299
0.01429142 0.741 -0.076653972 1.4631061e-38 331 299
0.01559064 0.741 -0.076653972 1.5459377e-38 332 299
0.016889861 0.741 -0.076653972 1.6012551e-38 333 299
0.018189078 0.741 -0.076653972 1.5919989e-38 334 299
0.0194357 0.73900002 -0.076447085 1.5919989e-38 335 299
0.020731414 0.73900002 -0.076447085 1.6286611e-38 336 299
0.021997318 0.73799998 -0.076343641 1.6286611e-38 337 299
0.023228159 0.736 -0.076136746 1.6469206e-38 338 299
0.024518613 0.736 -0.076136746 1.6469206e-38 339 299
0.025809066 0.736 -0.076136746 1.6469209e-38 340 299
0.02709952 0.736 -0.076136746 1.6469209e-38 341 299
0.028389972 0.736 -0.076136746 1.6376657e-38 342 299
0.029680425 0.736 -0.076136746 1.6468853e-38 343 299
0.030970879 0.736 -0.076136746 1.6469209e-38 344 299
0.032261331 0.736 -0.076136746 1.6469209e-38 345 299
0.033551786 0.736 -0.076136746 1.6469206e-38 346 299
0.034842238 0.736 -0.076136746 1.6469206e-38 347 299
0.036132693 0.736 -0.076136746 1.6377013e-38 348 299
0.037423145 0.736 -0.076136746 1.6377013e-38 349 299
0.038713597 0.736 -0.076136746 1.6192979e-38 350 299
0.040004052 0.736 -0.076136746 1.6100783e-38 351 299
0.041294504 0.736 -0.076136746 1.6008951e-38 352 299
0.042584959 0.736 -0.076136746 1.582492e-38 353 299
0.043994635 0.73799998 -0.076343641 1.4722178e-38 354 299
0.045349967 0.73900002 -0.076447085 1.3984613e-38 355 299
0.046645679 0.73900002 -0.076447085 1.278789e-38 356 299
0.048071139 0.741 -0.076653972 1.278789e-38 357 299
0.049436983 0.74199998 -0.076757424 1.3541289e-38 358 299
0.050874721 0.74400002 -0.076964319 1.6399714e-38 359 299
0.0065048663 0.74199998 -0.078058399 1.2420528e-38 325 300
0.0078058392 0.74199998 -0.078058399 1.2603476e-38 326 300
0.009106813 0.74199998 -0.078058399 1.2603476e-38 327 300
0.010393759 0.741 -0.077953197 1.2694956e-38 328 300
0.01169298 0.741 -0.077953197 1.260276e-38 329 300
0.0129922 0.741 -0.077953197 1.2327615e-38 330 300
0.01429142 0.741 -0.077953197 1.2419811e-38 331 300
0.01559064 0.741 -0.077953197 1.3248492e-38 332 300
0.016889861 0.741 -0.077953197 1.3801666e-38 333 300
0.018139986 0.73900002 -0.0777428 1.4814007e-38 334 300
0.019409399 0.73799998 -0.077637598 1.5274986e-38 335 300
0.020703359 0.73799998 -0.077637598 1.6285891e-38 336 300
0.021937706 0.736 -0.077427194 1.6470642e-38 337 300
0.023228159 0.736 -0.077427194 1.6469562e-38 338 300
0.024518613 0.736 -0.077427194 1.6192976e-38 339 300
0.025809066 0.736 -0.077427194 1.6468487e-38 340 300
0.02709952 0.736 -0.077427194 1.6376291e-38 341 300
0.028389972 0.736 -0.077427194 1.6469206e-38 342 300
0.029680425 0.736 -0.077427194 1.6469206e-38 343 300
0.030970879 0.736 -0.077427194 1.6469206e-38 344 300
0.032261331 0.736 -0.077427194 1.6469206e-38 345 300
0.033460613 0.73400003 -0.077216797 1.6469206e-38 346 300
0.03474756 0.73400003 -0.077216797 1.637701e-38 347 300
0.036034506 0.73400003 -0.077216797 1.6377013e-38 348 300
0.037321456 0.73400003 -0.077216797 1.6192623e-38 349 300
0.038608398 0.73400003 -0.077216797 1.6008232e-38 350 300
0.039895348 0.73400003 -0.077216797 1.6100427e-38 351 300
0.041182294 0.73400003 -0.077216797 1.5548691e-38 352 300
0.042584959 0.736 -0.077427194 1.4903322e-38 353 300
0.043875411 0.736 -0.077427194 1.4443796e-38 354 300
0.0452886 0.73799998 -0.077637598 1.4259404e-38 355 300
0.046645679 0.73900002 -0.0777428 1.3708401e-38 356 300
0.048071139 0.741 -0.077953197 1.3339619e-38 357 300
0.049436983 0.74199998 -0.078058399 1.2519576e-38 358 300
0.0129922 0.741 -0.079252414 1.2326912e-38 330 301
0.01429142 0.741 -0.079252414 1.2419107e-38 331 301
0.01559064 0.741 -0.079252414 1.2694252e-38 332 301
0.016844273 0.73900002 -0.079038516 1.3062676e-38 333 301
0.018115439 0.73799998 -0.078931555 1.3892061e-38 334 301
0.019409399 0.73799998 -0.078931555 1.4169007e-38 335 301
0.020647252 0.736 -0.078717649 1.4631058e-38 336 301
0.021937706 0.736 -0.078717649 1.5092036e-38 337 301
0.023228159 0.736 -0.078717649 1.545938e-38 338 301
0.024451986 0.73400003 -0.07850375 1.545938e-38 339 301
0.025738932 0.73400003 -0.07850375 1.6193345e-38 340 301
0.02702588 0.73400003 -0.07850375 1.6193345e-38 341 301
0.028312827 0.73400003 -0.07850375 1.6193345e-38 342 301
0.029599773 0.73400003 -0.07850375 1.6193345e-38 343 301
0.030886721 0.73400003 -0.07850375 1.6285896e-38 344 301
0.032173667 0.73400003 -0.07850375 1.6285896e-38 345 301
0.033460613 0.73400003 -0.07850375 1.6285896e-38 346 301
0.03474756 0.73400003 -0.07850375 1.6193342e-38 347 301
0.036034506 0.73400003 -0.07850375 1.6376294e-38 348 301
0.037321456 0.73400003 -0.07850375 1.628374e-38 349 301
0.038608398 0.73400003 -0.07850375 1.6191544e-38 350 301
0.039895348 0.73400003 -0.07850375 1.5915316e-38 351 301
0.041182294 0.73400003 -0.07850375 1.481401e-38 352 301
0.042469237 0.73400003 -0.07850375 1.4352672e-38 353 301
0.043875411 0.736 -0.078717649 1.3802746e-38 354 301
0.045165867 0.736 -0.078717649 1.3618354e-38 355 301
0.046645679 0.73900002 -0.079038516 1.3434688e-38 356 301
0.047941394 0.73900002 -0.079038516 1.3249938e-38 357 301
0.049370356 0.741 -0.079252414 1.2239032e-38 358 301
0.016821479 0.73799998 -0.080225512 1.2510211e-38 333 302
0.018115439 0.73799998 -0.080225512 1.269317e-38 334 302
0.019356798 0.736 -0.080008104 1.2785366e-38 335 302
0.020647252 0.736 -0.080008104 1.2970112e-38 336 302
0.021937706 0.736 -0.080008104 1.3523284e-38 337 302
0.023165042 0.73400003 -0.079790697 1.3986415e-38 338 302
0.024451986 0.73400003 -0.079790697 1.4631783e-38 339 302
0.025738932 0.73400003 -0.079790697 1.5367184e-38 340 302
0.02702588 0.73400003 -0.079790697 1.545938e-38 341 302
0.028312827 0.73400003 -0.079790697 1.601003e-38 342 302
0.029559445 0.73299998 -0.079681985 1.601003e-38 343 302
0.030844638 0.73299998 -0.079681985 1.6194061e-38 344 302
0.032129832 0.73299998 -0.079681985 1.601003e-38 345 302
0.033323854 0.73100001 -0.07946457 1.637701e-38 346 302
0.034605537 0.73100001 -0.07946457 1.6192979e-38 347 302
0.035985414 0.73299998 -0.079681985 1.6100781e-38 348 302
0.037270606 0.73299998 -0.079681985 1.6008585e-38 349 302
0.038555797 0.73299998 -0.079681985 1.573344e-38 350 302
0.039840993 0.73299998 -0.079681985 1.5088071e-38 351 302
0.041182294 0.73400003 -0.079790697 1.4351956e-38 352 302
0.042469237 0.73400003 -0.079790697 1.4259402e-38 353 302
0.043756187 0.73400003 -0.079790697 1.3801669e-38 354 302
0.045165867 0.736 -0.080008104 1.3617279e-38 355 302
0.046582557 0.73799998 -0.080225512 1.3342493e-38 356 302
0.047941394 0.73900002 -0.080334224 1.361872e-38 357 302
0.016821479 0.73799998 -0.081519477 1.2051751e-38 333 303
0.018115439 0.73799998 -0.081519477 1.2418381e-38 334 303
0.019356798 0.736 -0.08129856 1.2510577e-38 335 303
0.020647252 0.736 -0.08129856 1.2509855e-38 336 303
0.021937706 0.736 -0.08129856 1.2694605e-38 337 303
0.023165042 0.73400003 -0.081077635 1.2604925e-38 338 303
0.024451986 0.73400003 -0.081077635 1.2697121e-38 339 303
0.025738932 0.73400003 -0.081077635 1.3432885e-38 340 303
0.02702588 0.73400003 -0.081077635 1.3986059e-38 341 303
0.028312827 0.73400003 -0.081077635 1.4814376e-38 342 303
0.029559445 0.73299998 -0.080967173 1.5090964e-38 343 303
0.030844638 0.73299998 -0.080967173 1.573489e-38 344 303
0.032129832 0.73299998 -0.080967173 1.573489e-38 345 303
0.033323854 0.73100001 -0.080746263 1.6100427e-38 346 303
0.034605537 0.73100001 -0.080746263 1.6100427e-38 347 303
0.035887226 0.73100001 -0.080746263 1.5732724e-38 348 303
0.037168913 0.73100001 -0.080746263 1.5547973e-38 349 303
0.038450599 0.73100001 -0.080746263 1.4996601e-38 350 303
0.039732285 0.73100001 -0.080746263 1.4720013e-38 351 303
0.041126184 0.73299998 -0.080967173 1.3800944e-38 352 303
0.042411376 0.73299998 -0.080967173 1.3800944e-38 353 303
0.043756187 0.73400003 -0.081077635 1.3525802e-38 354 303
0.045165867 0.736 -0.08129856 1.3525802e-38 355 303
0.046582557 0.73799998 -0.081519477 1.3342493e-38 356 303
0.019356798 0.736 -0.082589008 1.2051748e-38 335 304
0.020647252 0.736 -0.082589008 1.2418732e-38 336 304
0.021937706 0.736 -0.082589008 1.2510927e-38 337 304
0.023165042 0.73400003 -0.082364589 1.2235066e-38 338 304
0.024451986 0.73400003 -0.082364589 1.2235066e-38 339 304
0.025738932 0.73400003 -0.082364589 1.2420178e-38 340 304
0.02702588 0.73400003 -0.082364589 1.2604928e-38 341 304
0.028312827 0.73400003 -0.082364589 1.3432885e-38 342 304
0.029599773 0.73400003 -0.082364589 1.3986059e-38 343 304
0.030844638 0.73299998 -0.082252368 1.4721459e-38 344 304
0.032129832 0.73299998 -0.082252368 1.509024e-38 345 304
0.033323854 0.73100001 -0.082027942 1.5457579e-38 346 304
0.034605537 0.73100001 -0.082027942 1.5549775e-38 347 304
0.035887226 0.73100001 -0.082027942 1.5180635e-38 348 304
0.037118066 0.73000002 -0.081915736 1.4812212e-38 349 304
0.038398001 0.73000002 -0.081915736 1.4259407e-38 350 304
0.039677933 0.73000002 -0.081915736 1.4259407e-38 351 304
0.041013971 0.73100001 -0.082027942 1.3708752e-38 352 304
0.042295661 0.73100001 -0.082027942 1.3800947e-38 353 304
0.043696571 0.73299998 -0.082252368 1.3526158e-38 354 304
0.045043133 0.73400003 -0.082364589 1.3526158e-38 355 304
0.046456318 0.736 -0.082589008 1.3434686e-38 356 304
0.024451986 0.73400003 -0.083651535 1.2235417e-38 339 305
0.025738932 0.73400003 -0.083651535 1.2327612e-38 340 305
0.02702588 0.73400003 -0.083651535 1.2143221e-38 341 305
0.028312827 0.73400003 -0.083651535 1.2418732e-38 342 305
0.029559445 0.73299998 -0.083537564 1.2603123e-38 343 305
0.030844638 0.73299998 -0.083537564 1.2971186e-38 344 305
0.032129832 0.73299998 -0.083537564 1.3339969e-38 345 305
0.033323854 0.73100001 -0.083309628 1.4076811e-38 346 305
0.034558199 0.73000002 -0.083195664 1.4169007e-38 347 305
0.035838135 0.73000002 -0.083195664 1.4901181e-38 348 305
0.037118066 0.73000002 -0.083195664 1.4808985e-38 349 305
0.038398001 0.73000002 -0.083195664 1.3707677e-38 350 305
0.039677933 0.73000002 -0.083195664 1.3892067e-38 351 305
0.041013971 0.73100001 -0.083309628 1.3617279e-38 352 305
0.042295661 0.73100001 -0.083309628 1.3617279e-38 353 305
0.043696571 0.73299998 -0.083537564 1.3525802e-38 354 305
0.045043133 0.73400003 -0.083651535 1.3525802e-38 355 305
0.029559445 0.73299998 -0.084822752 1.1959558e-38 343 306
0.03076048 0.73100001 -0.084591322 1.2326556e-38 344 306
0.032042164 0.73100001 -0.084591322 1.2695338e-38 345 306
0.033323854 0.73100001 -0.084591322 1.2970127e-38 346 306
0.034558199 0.73000002 -0.084475599 1.3154877e-38 347 306
0.035838135 0.73000002 -0.084475599 1.3431091e-38 348 306
0.037118066 0.73000002 -0.084475599 1.3615484e-38 349 306
0.038398001 0.73000002 -0.084475599 1.3432891e-38 350 306
0.039677933 0.73000002 -0.084475599 1.3525086e-38 351 306
0.040957868 0.73000002 -0.084475599 1.3525086e-38 352 306
0.042295661 0.73100001 -0.084591322 1.3617282e-38 353 306
0.043577347 0.73100001 -0.084591322 1.3434686e-38 354 306
0.044981763 0.73299998 -0.084822752 1.3434686e-38 355 306
0.03076048 0.73100001 -0.085873008 1.2510561e-38 344 307
0.032042164 0.73100001 -0.085873008 1.2418366e-38 345 307
0.033323854 0.73100001 -0.085873008 1.2050672e-38 346 307
0.034558199 0.73000002 -0.085755527 1.2235063e-38 347 307
0.035838135 0.73000002 -0.085755527 1.2511654e-38 348 307
0.037118066 0.73000002 -0.085755527 1.278824e-38 349 307
0.038398001 0.73000002 -0.085755527 1.3340695e-38 350 307
0.039677933 0.73000002 -0.085755527 1.3432891e-38 351 307
0.040957868 0.73000002 -0.085755527 1.3525802e-38 352 307
0.042295661 0.73100001 -0.085873008 1.3525802e-38 353 307
0.043577347 0.73100001 -0.085873008 1.3434688e-38 354 307
0.034558199 0.73000002 -0.087035462 1.1959558e-38 347 308
0.035838135 0.73000002 -0.087035462 1.205212e-38 348 308
0.037118066 0.73000002 -0.087035462 1.2328708e-38 349 308
0.038398001 0.73000002 -0.087035462 1.2972997e-38 350 308
0.039677933 0.73000002 -0.087035462 1.3157748e-38 351 308
0.040957868 0.73000002 -0.087035462 1.3342493e-38 352 308
0.0422378 0.73000002 -0.087035462 1.3342493e-38 353 308
