# .PCD v0.7 - Point Cloud Data file format
VERSION 0.7
FIELDS x y z rgb
SIZE 4 4 4 4
TYPE F F F F
COUNT 1 1 1 1
WIDTH 232
HEIGHT 1
VIEWPOINT 0 0 0 1 0 0 0
POINTS 232
DATA ascii
-0.063656516 0.26153672 0.95300007 1.2060658e-38
-0.03899806 0.27092591 0.95300007 9.2973336e-39
-0.039202671 0.24875122 0.95800006 1.6204353e-38
0.013233125 0.24969506 0.95800006 1.224249e-38
0.01609326 0.24969506 0.95800006 1.2241413e-38
-0.050643209 0.25347045 0.95800006 1.3993127e-38
-0.047783077 0.25347045 0.95800006 1.4639556e-38
-0.043492876 0.25299853 0.95800006 1.5555038e-38
-0.039202671 0.25252658 0.95800006 1.5551807e-38
-0.065897256 0.25913352 0.95800006 1.2705307e-38
-0.062083747 0.25913352 0.95800006 1.233616e-38
-0.057316855 0.25913352 0.95800006 1.2241438e-38
-0.051596586 0.25771776 0.95800006 1.3162298e-38
-0.047758635 0.2571106 0.95750016 1.4642071e-38
-0.043016188 0.25724584 0.95800006 1.6300505e-38
-0.039202671 0.25724584 0.95800006 1.6761843e-38
-0.067098647 0.26294711 0.95700014 1.2337245e-38
-0.061667752 0.26280987 0.95650005 1.1783709e-38
-0.057647243 0.26255605 0.95671439 1.1690075e-38
-0.052494448 0.26263377 0.95700008 1.2058847e-38
-0.047684312 0.26236004 0.95600003 1.4181101e-38
-0.043001223 0.26281679 0.9576667 1.3904512e-38
-0.037911043 0.26308531 0.95750016 1.3537537e-38
-0.061081767 0.26741934 0.95725 1.13231e-38
-0.057890624 0.26828966 0.95700014 1.095504e-38
-0.052549966 0.26762813 0.95800006 1.058554e-38
-0.047465287 0.26731354 0.95800006 1.0769918e-38
-0.04299473 0.26748896 0.9575001 1.0769202e-38
-0.038366314 0.26768979 0.95620006 1.0401508e-38
-0.056363478 0.27045965 0.95800006 1.0771013e-38
-0.054456722 0.27045965 0.95800006 1.0585909e-38
-0.046829697 0.27045965 0.95800006 1.0123856e-38
-0.043016188 0.27045965 0.95800006 9.7572314e-39
-0.037295915 0.27140349 0.95800006 9.4802886e-39
-0.010656658 0.23392038 0.96300006 1.3810179e-38
-0.0077815959 0.23392038 0.96300006 1.3443547e-38
-0.017365135 0.23866424 0.96300006 1.4456252e-38
-0.012323985 0.23776604 0.96225005 1.4086036e-38
-0.0077762082 0.23754959 0.96233338 1.3165876e-38
-0.0029875084 0.23749474 0.96211129 1.2796737e-38
0.0027566713 0.23744032 0.96188897 1.2706698e-38
-0.05665765 0.24245933 0.96300006 1.3626166e-38
-0.054627255 0.24195576 0.96100003 1.3717281e-38
-0.032648362 0.24397574 0.96150005 1.4362254e-38
-0.028370721 0.24375512 0.96250004 1.2524841e-38
-0.021862801 0.24319032 0.962143 1.2336492e-38
-0.017153021 0.24272525 0.96180004 1.1598578e-38
-0.012547254 0.24290258 0.96100003 1.0768104e-38
-0.007574162 0.24252386 0.96100008 9.8486675e-39
-0.0029836162 0.24195579 0.96100008 9.6632085e-39
0.0027580955 0.24220788 0.96200007 8.8370463e-39
0.0075520677 0.24245933 0.96300006 1.0584072e-38
0.011377602 0.24323827 0.96233338 1.0400757e-38
-0.060491063 0.24530564 0.96300006 1.3259186e-38
-0.058095179 0.24672881 0.96300006 1.3165188e-38
-0.053463139 0.24783573 0.96300018 1.3071905e-38
-0.036033574 0.24754824 0.96250004 1.5743741e-38
-0.032630891 0.24763659 0.96100003 1.3257374e-38
-0.027644711 0.24724688 0.96224999 9.5757044e-39
-0.022142623 0.2475981 0.96242869 1.0032715e-38
-0.017556807 0.2475827 0.96300012 1.058407e-38
-0.012934226 0.24754989 0.96140003 1.1226916e-38
-0.0087399501 0.24625441 0.96300006 1.0583349e-38
-0.0034690029 0.24578004 0.96300006 9.7561174e-39
0.0032394752 0.24578004 0.96300006 8.8363303e-39
0.0072326167 0.24593817 0.96300006 9.2958595e-39
0.012598773 0.24737751 0.96157146 1.1230146e-38
0.01665643 0.24767758 0.96300006 1.1781518e-38
0.021921873 0.24714571 0.96277791 1.2240336e-38
-0.06624119 0.2528958 0.96300006 1.334887e-38
-0.062407766 0.2528958 0.96300018 1.2888242e-38
-0.057616003 0.2528958 0.96300006 1.2703114e-38
-0.052824236 0.2521368 0.96300012 1.3531783e-38
-0.048990816 0.2528958 0.96300006 1.5095503e-38
-0.036677171 0.25258067 0.96180004 1.5461046e-38
-0.032357376 0.25145704 0.96233338 1.2791373e-38
-0.027886383 0.25082451 0.96233338 1.0215303e-38
-0.021883093 0.25235367 0.96300018 1.2333614e-38
-0.017365135 0.25289583 0.96300018 1.3253039e-38
-0.012798904 0.25239697 0.96200001 1.3619307e-38
-0.0087399501 0.25099826 0.96300006 1.2422571e-38
0.010405474 0.25047699 0.96100003 1.2702752e-38
0.018056383 0.25047699 0.96100003 1.2241413e-38
0.02286097 0.25073761 0.96200001 1.2332531e-38
0.026692398 0.25073761 0.96200001 1.2515843e-38
-0.071252733 0.25886163 0.9616667 1.3073728e-38
-0.067744747 0.25822976 0.96166676 1.2981171e-38
-0.062311061 0.25794798 0.96150005 1.2519828e-38
-0.057556175 0.25737113 0.96200007 1.2334701e-38
-0.053726736 0.25831893 0.96200001 1.2700969e-38
-0.037464619 0.25840813 0.96233338 1.676113e-38
-0.01353172 0.25669089 0.96300006 1.4265031e-38
-0.068972707 0.26183861 0.96100003 1.2613473e-38
-0.064190887 0.26183861 0.96100003 1.2244689e-38
-0.036186814 0.26156938 0.96233338 1.5565486e-38
-0.032972977 0.26328266 0.96166676 1.4825755e-38
-0.027867064 0.26391515 0.9616667 1.5282413e-38
-0.024073614 0.26428106 0.96300006 1.5650841e-38
-0.014490074 0.26048598 0.96300006 1.7123073e-38
-0.052769378 0.26874655 0.96200001 1.0585184e-38
-0.048990816 0.2699737 0.96300006 1.0125648e-38
-0.035499983 0.26751944 0.96100008 1.1322004e-38
-0.032630891 0.26751944 0.96100008 1.1230887e-38
-0.027855065 0.26758084 0.96122223 1.1323079e-38
-0.024073614 0.26807615 0.96300006 1.1508192e-38
-0.035499983 0.2713066 0.96100003 9.5710493e-39
-0.032630891 0.2713066 0.96100003 9.0189545e-39
-0.028266391 0.2724044 0.96220011 7.5477873e-39
-0.023434712 0.27313626 0.96300006 6.9960498e-39
-0.031938206 0.23824188 0.96900004 1.3714026e-38
-0.022502271 0.23715632 0.96749997 1.42672e-38
-0.017758708 0.23616099 0.96700001 1.4083173e-38
-0.014535214 0.23655257 0.96600002 1.4361909e-38
-0.032242443 0.24127017 0.96660006 1.3991322e-38
-0.0276604 0.24195062 0.96780008 1.4178237e-38
-0.022706602 0.24083534 0.96600002 1.4272228e-38
-0.066653907 0.24874339 0.96900004 1.3535055e-38
-0.062602192 0.24892503 0.96600002 1.3350658e-38
-0.056834154 0.24892503 0.96600002 1.2980075e-38
-0.051066115 0.24797329 0.96600002 1.380765e-38
-0.010689856 0.24987675 0.96600002 1.1502781e-38
-0.0078058378 0.24892503 0.96600002 1.0950691e-38
-0.0020378004 0.24797329 0.96600002 1.0031264e-38
0.0018075577 0.24797329 0.96600002 9.6639273e-39
0.0085369339 0.24797329 0.96600002 1.0400038e-38
-0.07119415 0.25262886 0.96780008 1.3533983e-38
-0.067994229 0.25169235 0.96750003 1.3625816e-38
-0.057795495 0.25368366 0.96600002 1.2702751e-38
-0.053950131 0.25368366 0.96600002 1.3531423e-38
-0.035684682 0.25368366 0.96600002 1.4446907e-38
-0.033762004 0.25368366 0.96600002 1.3620034e-38
-0.028049937 0.25420889 0.96800005 1.2422578e-38
-0.0078164656 0.25407755 0.96750003 1.3621102e-38
-0.0030084539 0.25160745 0.96900004 1.1412022e-38
0.0040632631 0.25128922 0.96900004 1.2517288e-38
0.007599121 0.25160745 0.96900004 1.2885343e-38
0.020073008 0.25178021 0.96600002 1.2241054e-38
-0.071254246 0.25653884 0.96600002 1.3349593e-38
-0.068370223 0.2555871 0.96600002 1.3348513e-38
-0.052988794 0.25653884 0.96600002 1.3255206e-38
-0.035684682 0.25844228 0.96600002 1.6946592e-38
-0.032416064 0.25771904 0.96685719 1.6388389e-38
-0.027659208 0.25682712 0.96780008 1.5647592e-38
-0.022249935 0.25743988 0.96700001 1.5741587e-38
-0.017739682 0.25812507 0.96600002 1.5647596e-38
-0.010723054 0.25733554 0.96900004 1.408172e-38
-0.0087944046 0.25638086 0.96900004 1.3990605e-38
-0.031244887 0.26202047 0.96749997 1.6484903e-38
-0.027116582 0.26210898 0.96900004 1.6852251e-38
-0.022836993 0.26226494 0.96857142 1.6762919e-38
-0.017739682 0.26256645 0.96600002 1.740684e-38
-0.012088617 0.26214904 0.96814287 1.6019259e-38
-0.0087944046 0.26210895 0.96900004 1.481784e-38
-0.021676594 0.26727977 0.96600008 1.3811615e-38
-0.017455298 0.26756263 0.96800005 1.5746618e-38
-0.013196299 0.2674467 0.96857142 1.6577093e-38
-0.052109733 0.27314168 0.96750003 1.0308607e-38
-0.049296055 0.27356514 0.96900004 1.0124217e-38
-0.035684682 0.27462167 0.96600002 9.2948211e-39
-0.031839326 0.27462167 0.96600002 8.4675828e-39
-0.026071288 0.27462167 0.96600002 7.0878937e-39
-0.021072323 0.27233753 0.96600002 8.469717e-39
-0.017427754 0.27285838 0.96650004 9.4827871e-39
-0.012651704 0.27261049 0.96900004 1.224898e-38
-0.0078300796 0.27356514 0.96900004 1.3811607e-38
-0.035795506 0.27738389 0.96900004 9.2044149e-39
-0.033866856 0.27547452 0.96900004 9.1111487e-39
-0.02711658 0.27738389 0.96900004 7.8240056e-39
-0.02186781 0.27763236 0.96719998 7.6396116e-39
-0.017446281 0.27790919 0.96750003 7.3626674e-39
-0.013294588 0.27674744 0.96900004 7.6403164e-39
-0.0078300796 0.27642921 0.96900004 9.5749687e-39
-0.0049371039 0.27738389 0.96900004 9.7590279e-39
-0.016509004 0.28120261 0.96900004 7.9151069e-39
-0.027200533 0.2399371 0.97200006 1.3990974e-38
-0.0068870103 0.25238639 0.97200006 1.168717e-38
-0.003017768 0.25238639 0.97200006 1.1411665e-38
0.0014963479 0.25270563 0.97200006 1.1506736e-38
-0.0075426586 0.25880688 0.97333336 1.3898049e-38
-0.0030177683 0.25717461 0.972 1.3437431e-38
0.0027867323 0.25723383 0.97222233 1.2517642e-38
0.0076308213 0.25744051 0.97300005 1.2425445e-38
-0.020429358 0.26292044 0.97200006 1.7223896e-38
-0.016560117 0.2619628 0.97200006 1.6664606e-38
-0.014625495 0.26100516 0.97200006 1.5461047e-38
-0.0076608593 0.26292044 0.97200006 1.491111e-38
-0.0030177683 0.26292044 0.972 1.3806569e-38
0.0018197403 0.26300997 0.97233343 1.2610917e-38
0.0066621844 0.26223132 0.97300005 1.2150658e-38
-0.010756253 0.26866627 0.97200006 1.7405765e-38
-0.0078578638 0.26784682 0.97250009 1.7773469e-38
-0.0030208731 0.26798505 0.97300005 1.7221741e-38
0.0023067393 0.26716262 0.97350007 1.5467154e-38
0.0086076334 0.26538065 0.97400004 1.2705987e-38
-0.010756253 0.27058154 0.97200006 1.6023924e-38
-0.007854321 0.27153918 0.97200006 1.6024288e-38
-0.0030193955 0.27268416 0.97266674 1.6301972e-38
0.0016275203 0.27332845 0.97360003 1.7592316e-38
0.013454137 0.27497673 0.97400004 1.7961091e-38
0.017331343 0.27497673 0.97400004 1.7777426e-38
0.024116449 0.27497673 0.97400004 1.796183e-38
-0.032037087 0.27824268 0.97200006 8.5597686e-39
-0.010756253 0.27824268 0.97200006 6.3535391e-39
-0.002630844 0.2770935 0.97200006 1.2522702e-38
0.0023995214 0.27759027 0.97240013 1.4183279e-38
0.0076226476 0.27824268 0.97200006 1.4000331e-38
0.012476955 0.27766475 0.97333336 1.6207956e-38
0.017322943 0.27771243 0.97350001 1.6668207e-38
0.022177845 0.2778556 0.9740001 1.6210466e-38
0.026055051 0.27785558 0.97400004 1.6023935e-38
0.0076304902 0.28140578 0.97300005 1.0864267e-38
0.022177849 0.2815021 0.9740001 1.2155694e-38
0.004745 0.26331037 0.97700006 1.1967351e-38
0.0086341454 0.26331037 0.97700006 1.2150658e-38
0.004745 0.26812318 0.97700006 1.4271493e-38
0.0066895727 0.26812318 0.97700006 1.3903078e-38
0.010578718 0.26812318 0.97700006 1.3993837e-38
0.004745 0.27389857 0.97700006 1.814692e-38
0.012523292 0.27389857 0.97700012 1.7961093e-38
0.016412437 0.27389857 0.97700006 1.7777426e-38
0.023218442 0.27389857 0.97700006 1.7503371e-38
-0.052619897 0.27774882 0.97700006 1.0309323e-38
-0.047758467 0.27774882 0.97700006 9.9405409e-39
0.004745 0.27678627 0.97700006 1.6672178e-38
0.007661859 0.27678627 0.97700006 1.6673978e-38
0.010578718 0.27582368 0.97700006 1.768559e-38
0.02127387 0.27582368 0.97700006 1.7778509e-38
0.026135301 0.27582368 0.97700006 1.7869641e-38
0.0076853861 0.26798093 0.98000002 1.3166599e-38
0.0037842982 0.27184302 0.98000002 1.7405031e-38
0.0077010705 0.27336332 0.98200005 1.6671434e-38
0.028166097 0.27763611 0.98000002 1.7130627e-38
