# .PCD v0.7 - Point Cloud Data file format
VERSION 0.7
FIELDS x y z rgb
SIZE 4 4 4 4
TYPE F F F F
COUNT 1 1 1 1
WIDTH 354
HEIGHT 1
VIEWPOINT 0 0 0 1 0 0 0
POINTS 354
DATA ascii
0.072509006 0.15329364 1.123 1.4184689e-38
0.072509006 0.15661286 1.123 1.252592e-38
0.072509006 0.16435771 1.123 1.141779e-38
0.0537007 0.14939825 1.1270001 1.2803216e-38
0.05706539 0.14939825 1.1270001 1.2895417e-38
0.0537007 0.1527293 1.1270001 1.1696881e-38
0.058186952 0.1527293 1.1270001 1.2433717e-38
0.062673204 0.15383965 1.1270001 1.3077991e-38
0.070524141 0.15383965 1.1270001 1.3908833e-38
0.0537007 0.1571707 1.1270001 1.012528e-38
0.058186952 0.1571707 1.1270001 1.0220698e-38
0.062673204 0.1571707 1.1270001 1.0775285e-38
0.070524141 0.15828104 1.1270001 1.1693668e-38
0.052579142 0.16272244 1.1270001 1.1876226e-38
0.058747735 0.16327763 1.1270001 1.1598574e-38
0.061551642 0.16050175 1.1270001 1.0033441e-38
0.068281017 0.16383278 1.1270001 1.1416345e-38
0.071084924 0.16272244 1.1270001 1.1415623e-38
0.034849256 0.13915375 1.1340001 1.3172377e-38
0.038234845 0.13915375 1.1340001 1.3171655e-38
0.042748958 0.13915375 1.1340001 1.2805032e-38
0.047263075 0.13915375 1.1340001 1.2714634e-38
0.051777191 0.13915375 1.1340001 1.3727312e-38
0.034849256 0.14250548 1.1340001 1.307874e-38
0.038234845 0.14250548 1.1340001 1.3079445e-38
0.042748962 0.14250548 1.1340001 1.2803231e-38
0.047263075 0.14250548 1.1340001 1.2526657e-38
0.051777191 0.14250548 1.1340001 1.2250783e-38
0.057419837 0.1425055 1.1340001 1.3081244e-38
0.061933953 0.14250548 1.1340001 1.3908491e-38
0.06644807 0.14138824 1.1340001 1.4463096e-38
0.034849256 0.14697447 1.1340001 1.2339745e-38
0.038234845 0.14697447 1.1340001 1.234116e-38
0.042748958 0.14697447 1.1340001 1.2527705e-38
0.0472214 0.14795916 1.1330001 1.2525914e-38
0.0514699 0.14740857 1.1322001 1.2618475e-38
0.057632923 0.1471743 1.1318573 1.2986899e-38
0.063062482 0.14697447 1.1340001 1.3724809e-38
0.06644807 0.14697447 1.1340001 1.4002468e-38
0.072090715 0.14697447 1.1340001 1.464889e-38
0.075476304 0.14585721 1.1340001 1.5018743e-38
0.033720728 0.15032621 1.1340001 1.1140855e-38
0.038460549 0.15211381 1.1340001 1.0037034e-38
0.042748958 0.15256071 1.1340001 1.0221773e-38
0.047138043 0.15327138 1.131 1.0129929e-38
0.050514672 0.15327138 1.131 1.1235545e-38
0.062979065 0.15124165 1.1325001 1.3263824e-38
0.067517005 0.1524242 1.1330001 1.3632961e-38
0.072042286 0.15134256 1.13325 1.4279747e-38
0.077410921 0.15192229 1.1340001 1.4740001e-38
0.039363373 0.15702967 1.1340001 9.9408912e-39
0.04387749 0.15814692 1.1340001 9.9419674e-39
0.047168553 0.15783387 1.1317501 9.6653777e-39
0.050514672 0.15772854 1.131 1.0217468e-38
0.067397825 0.15772854 1.131 1.1696523e-38
0.077733368 0.15702967 1.1340001 1.344857e-38
0.04387749 0.16149865 1.1340001 1.1417416e-38
0.047231071 0.16250761 1.13325 1.086604e-38
0.052153371 0.16224349 1.1340001 1.1047916e-38
0.056566216 0.16195668 1.1320001 1.1046479e-38
0.06327083 0.16255713 1.131 1.077171e-38
0.067022644 0.16181427 1.131 1.0862826e-38
0.07302554 0.1610714 1.131 1.1598578e-38
0.076402172 0.1610714 1.131 1.1415632e-38
0.047263075 0.16596763 1.1340001 1.1142262e-38
0.051640213 0.16552857 1.131 1.169435e-38
0.055016845 0.16552857 1.131 1.2703105e-38
0.063327439 0.16641974 1.1320001 1.1784763e-38
0.067141831 0.16731094 1.1330001 1.1601461e-38
0.06644807 0.17043662 1.1340001 1.1785503e-38
0.032707162 0.13964458 1.138 1.3172021e-38
0.032707162 0.14300814 1.138 1.2986548e-38
0.064417429 0.14300814 1.138 1.4093956e-38
0.068192467 0.14338188 1.138 1.4464524e-38
0.072345003 0.14412932 1.138 1.4926201e-38
0.075742535 0.14412932 1.138 1.5203852e-38
0.032707162 0.14749289 1.138 1.2523767e-38
0.068947472 0.14749289 1.138 1.4187208e-38
0.076875046 0.14861406 1.138 1.4926904e-38
0.032140907 0.15253821 1.138 1.040366e-38
0.033839673 0.15758356 1.138 1.0402566e-38
0.037803452 0.15814415 1.138 1.0677721e-38
0.04176724 0.15870473 1.138 1.0402218e-38
0.078007549 0.15758355 1.138 1.3171268e-38
0.08027257 0.15758355 1.138 1.3446779e-38
0.038747214 0.16281575 1.138 1.1874436e-38
0.042522248 0.16356321 1.138 1.178583e-38
0.044032257 0.16655304 1.138 1.1326649e-38
0.055357356 0.20467336 1.138 1.3168037e-38
0.030549144 0.14238569 1.1420001 1.3169505e-38
0.027139671 0.14801133 1.1420001 1.2523402e-38
0.030549144 0.14801133 1.1420001 1.2431205e-38
0.027139671 0.15251184 1.1420001 9.8533619e-39
0.027518503 0.15663731 1.1420001 1.0128141e-38
0.030549144 0.15701234 1.1420001 1.0127418e-38
0.031685635 0.16151285 1.1420001 1.1691837e-38
0.035095107 0.16263798 1.1420001 1.1874791e-38
0.039641071 0.16713849 1.1420001 1.1878745e-38
0.04191405 0.16713849 1.1420001 1.1602877e-38
0.073735774 0.19189127 1.1420001 1.7411897e-38
0.076008759 0.19189127 1.1420001 1.7871429e-38
0.066916838 0.1975169 1.1420001 1.2152458e-38
0.071462795 0.19864203 1.1420001 1.233505e-38
0.076008759 0.1975169 1.1420001 1.3166236e-38
0.053278953 0.20314254 1.1420001 1.3073684e-38
0.056688428 0.20314254 1.1420001 1.2429401e-38
0.060097896 0.20201741 1.1420001 1.1690417e-38
0.066916838 0.20089228 1.1420001 1.1321635e-38
0.076008759 0.20089228 1.1420001 1.0951431e-38
0.022672851 0.1428844 1.146 1.3626529e-38
0.027614892 0.1421317 1.1460001 1.3352462e-38
0.022672851 0.14740068 1.146 1.316734e-38
0.027234733 0.14514254 1.146 1.3259181e-38
0.02381332 0.15304601 1.146 1.0680609e-38
0.019251436 0.15756229 1.146 1.1139406e-38
0.022672851 0.15756229 1.146 1.1139766e-38
0.026094263 0.15869135 1.146 1.1140831e-38
-0.0024175148 0.16320762 1.146 1.630663e-38
0.027234733 0.16094948 1.146 1.2058462e-38
0.037498973 0.16546576 1.146 1.2332896e-38
0.064870283 0.19482152 1.146 1.4741094e-38
0.068519786 0.1925634 1.146 1.6860155e-38
0.07285358 0.19482152 1.146 1.5659115e-38
0.076274991 0.19256338 1.146 1.7227135e-38
0.048903685 0.19820872 1.146 9.9383941e-39
0.053465568 0.19933778 1.146 1.0396449e-38
0.057267141 0.19858508 1.1460001 1.0399707e-38
0.062589347 0.19820872 1.146 1.1140473e-38
0.069432162 0.19820872 1.146 1.2614155e-38
0.073233739 0.19783235 1.1460001 1.3350996e-38
0.078555934 0.19707964 1.146 1.3998871e-38
0.080836877 0.19707964 1.146 1.4089638e-38
0.051944941 0.20234863 1.1460001 1.2886425e-38
0.056886982 0.20159592 1.146 1.1504948e-38
0.063729808 0.20272499 1.146 1.1597868e-38
0.068671852 0.20310134 1.1460001 1.2058845e-38
0.07285358 0.20272499 1.146 1.1597516e-38
0.019318633 0.14678216 1.1500001 1.3626512e-38
-0.0070220307 0.15284489 1.153 1.5838804e-38
-0.0024322812 0.15284489 1.153 1.6022476e-38
0.0021574679 0.15284489 1.153 1.5835935e-38
0.0055852095 0.15244721 1.1500001 1.4086407e-38
0.010163017 0.15244721 1.1500001 1.0217117e-38
0.018174181 0.15244721 1.1500001 1.114049e-38
0.021607535 0.15358022 1.1500001 1.0586988e-38
-0.021938715 0.15852471 1.153 1.2616351e-38
-0.017341444 0.15845548 1.1524999 1.160399e-38
-0.01161178 0.15966067 1.153 1.4553852e-38
-0.006792543 0.15738873 1.153 1.6115391e-38
-0.0024322816 0.15738875 1.153 1.5837006e-38
0.0021574679 0.15738875 1.153 1.4455525e-38
0.0065036849 0.15751317 1.1506001 1.2702046e-38
0.012451921 0.15811226 1.1500001 1.1229804e-38
0.017029729 0.15811226 1.1500001 1.1230164e-38
-0.021938715 0.16306856 1.153 1.2431597e-38
-0.01733591 0.16292715 1.152 1.1881636e-38
-0.011596674 0.16285494 1.1515 1.4738248e-38
-0.0070128953 0.16285494 1.1515 1.5843516e-38
-0.0024322812 0.1619326 1.153 1.6949456e-38
0.0021553182 0.16296175 1.1522499 1.7135292e-38
0.0067296615 0.16264428 1.1500001 1.7039876e-38
0.012451921 0.1626443 1.1500001 1.5651191e-38
0.018174181 0.16264428 1.1500001 1.3901275e-38
0.022751987 0.16264428 1.1500001 1.3347748e-38
0.027329795 0.16377729 1.1500001 1.2703107e-38
0.030763149 0.16377729 1.1500001 1.2335406e-38
-0.016874325 0.16766517 1.1518 1.1693312e-38
-0.01161178 0.16761243 1.153 1.151035e-38
-0.0070220307 0.16761242 1.153 1.298582e-38
-0.0024322814 0.16761243 1.153 1.3908497e-38
0.0021531684 0.16739437 1.1515 1.4555644e-38
0.0067296615 0.16717632 1.1500001 1.556978e-38
0.01245833 0.1672495 1.1505001 1.7592688e-38
0.018174181 0.16717632 1.1500001 1.6670003e-38
0.021635719 0.16739585 1.1515 1.5096575e-38
0.028548528 0.16647646 1.153 1.3346673e-38
0.031990837 0.16761242 1.153 1.3622182e-38
0.036134653 0.16770034 1.151 1.2703114e-38
-0.01581905 0.17177764 1.1530001 1.1048318e-38
-0.01161178 0.17102031 1.153 1.0586961e-38
-0.0070220307 0.17215627 1.153 1.0218189e-38
-0.0028147604 0.17177764 1.1530001 1.0494785e-38
0.0021553182 0.17204356 1.1522499 1.1141936e-38
0.0067420816 0.17204356 1.1522499 1.2525199e-38
0.012475565 0.17200696 1.152 1.5106678e-38
0.018221591 0.17215627 1.153 1.722679e-38
0.021663902 0.17215627 1.153 1.7594831e-38
0.037728023 0.17102031 1.153 1.1691135e-38
0.040022898 0.17102031 1.153 1.150711e-38
-0.0058745933 0.17670015 1.153 9.7586733e-39
-0.0035797185 0.17670015 1.153 9.7575971e-39
0.0021553182 0.17658594 1.1522501 8.9321595e-39
0.0067472169 0.17670015 1.153 9.2058695e-39
0.012484404 0.17670015 1.153 1.0776041e-38
0.018221591 0.17670015 1.153 1.4002485e-38
0.0025399472 0.18086533 1.1530001 9.207666e-39
0.0067472174 0.18237995 1.153 9.0232719e-39
0.012484402 0.18237995 1.153 8.4718904e-39
0.018221591 0.18237995 1.153 8.840998e-39
0.022237621 0.18237996 1.153 1.0410461e-38
0.02740109 0.18237996 1.153 1.4463473e-38
0.030843401 0.18237996 1.153 1.6491041e-38
0.062971644 0.18351592 1.153 1.3903119e-38
0.0071296967 0.18768112 1.1530001 9.2076463e-39
0.012484403 0.18805978 1.153 8.4711659e-39
0.018221591 0.18805978 1.153 7.366982e-39
0.022428861 0.18768112 1.1530001 6.8156102e-39
0.053792145 0.18919574 1.153 1.833636e-38
0.057234459 0.18805978 1.153 1.759664e-38
0.061783243 0.18793671 1.1522501 1.7777415e-38
0.065096699 0.18757048 1.1500001 1.7407193e-38
0.081330642 0.18919574 1.153 1.6200769e-38
0.012484404 0.19146769 1.1530001 9.7568713e-39
0.017074153 0.19260363 1.153 9.7575887e-39
0.022428861 0.19298229 1.1530001 8.4697408e-39
0.028548528 0.19373959 1.153 7.2726213e-39
0.037693314 0.19357157 1.152 7.6428556e-39
0.043465212 0.19373959 1.153 1.1330999e-38
0.048437439 0.19298229 1.1530001 1.4646746e-38
0.052644707 0.19260363 1.153 1.6030761e-38
0.057234459 0.19260363 1.153 1.7044202e-38
0.061702814 0.19222705 1.15075 1.7595925e-38
0.065859668 0.19248018 1.1500001 1.7596637e-38
0.07883013 0.19210251 1.1500001 1.8055092e-38
0.082025066 0.19281428 1.152 1.75898e-38
0.028548528 0.19828346 1.153 1.1599656e-38
0.032373317 0.19752616 1.1530001 1.0124536e-38
0.037661586 0.19680455 1.151 9.0207187e-39
0.043352116 0.19663455 1.1500001 9.6653693e-39
0.047548443 0.19625688 1.1500001 1.0683466e-38
0.052507732 0.19663456 1.1500001 1.1142279e-38
0.056752704 0.19642687 1.151 1.2342623e-38
0.061663345 0.19550154 1.1500001 1.4186136e-38
0.07883013 0.19550154 1.1500001 1.6398093e-38
0.082790032 0.19659886 1.152 1.5566914e-38
0.085920393 0.19714749 1.153 1.5012671e-38
0.051363282 0.20003358 1.1500001 1.0580501e-38
-0.011652064 0.15679485 1.1570001 1.3905247e-38
-0.0081978096 0.15793476 1.1570001 1.6022123e-38
-0.026620498 0.16135448 1.1570001 1.2892937e-38
-0.024317663 0.16249439 1.1570001 1.2708544e-38
-0.022782441 0.16857389 1.1570001 1.2339404e-38
-0.01971199 0.167054 1.1570001 1.2155727e-38
0.028647566 0.1693338 1.1570001 1.3621819e-38
-0.023166245 0.17161362 1.1570001 1.1970271e-38
-0.018944379 0.17313349 1.1570001 1.1324189e-38
-0.011652064 0.17389342 1.1570001 1.0311466e-38
-0.0012893014 0.17389342 1.1570001 1.0033451e-38
0.024041895 0.17389342 1.1570001 1.7868897e-38
0.036323689 0.17313349 1.1570001 1.2421509e-38
0.040161747 0.17389342 1.1570001 1.1689001e-38
-0.015106318 0.17731315 1.1570001 1.0496586e-38
-0.011268258 0.17693317 1.1570001 1.0127801e-38
-0.0081978096 0.17731315 1.1570001 9.7590279e-39
-0.0012893014 0.17731315 1.1570001 9.3906111e-39
0.022890475 0.17731315 1.1570001 1.6581765e-38
0.02634473 0.17617324 1.1570001 1.7870692e-38
0.030950403 0.17617324 1.1570001 1.7037696e-38
-0.0012893014 0.18073286 1.1570001 9.4835298e-39
0.0010135346 0.18301266 1.1570001 9.4831682e-39
0.024041895 0.18073286 1.1570001 1.4555642e-38
0.027496148 0.18073286 1.1570001 1.6399557e-38
0.057433017 0.18301266 1.1570001 1.3903441e-38
0.0025487589 0.18605243 1.1570001 9.667191e-39
0.0056192069 0.1898521 1.1570001 9.4838717e-39
0.024041895 0.1875723 1.1570001 7.0947013e-39
0.02634473 0.18643239 1.1570001 9.4867275e-39
0.049373094 0.1898521 1.1570001 1.8240191e-38
0.052827343 0.1875723 1.1570001 1.6950199e-38
0.057433017 0.18529248 1.1570001 1.5012298e-38
0.060887273 0.18529248 1.1570001 1.5376779e-38
0.083915628 0.1898521 1.1570001 1.5370683e-38
0.0079220431 0.19213191 1.1570001 1.0402951e-38
0.014830551 0.19441172 1.1570001 1.1044715e-38
0.019436222 0.19327182 1.1570001 9.296619e-39
0.024041895 0.19213191 1.1570001 7.4577497e-39
0.027112342 0.19289184 1.1570001 6.998561e-39
0.03248563 0.1936518 1.1570001 7.2729815e-39
0.036707494 0.19213191 1.1570001 1.0317234e-38
0.042464584 0.19213192 1.1570001 1.3636599e-38
0.047070257 0.19213191 1.1570001 1.6306982e-38
0.083915628 0.19213191 1.1570001 1.6754659e-38
0.086218461 0.19441172 1.1570001 1.731464e-38
0.030950403 0.19669153 1.1570001 8.7416207e-39
0.088521302 0.19783144 1.1570001 1.4830069e-38
-0.026712531 0.16763154 1.161 1.2707472e-38
-0.024401734 0.16763154 1.161 1.2615631e-38
0.024125014 0.16877538 1.161 1.3897687e-38
-0.023246335 0.17449461 1.161 1.1693331e-38
0.024125014 0.17220692 1.161 1.7029798e-38
0.027591208 0.17449461 1.161 1.6020321e-38
0.031057404 0.17449461 1.161 1.4821786e-38
-0.022090936 0.17678231 1.161 1.1416747e-38
-0.018239608 0.17754488 1.161 1.0864292e-38
-0.012847747 0.17907 1.161 1.022e-38
0.027976342 0.17830744 1.161 1.7686315e-38
0.031057404 0.17907 1.161 1.7594832e-38
0.0368344 0.17792615 1.161 1.4362618e-38
0.040300597 0.17678231 1.161 1.2151759e-38
-0.015158544 0.1813577 1.161 1.0496946e-38
-0.011692348 0.1813577 1.161 1.0036331e-38
-0.0070707528 0.1813577 1.161 9.6675539e-39
-0.0024491576 0.18250154 1.161 9.667198e-39
0.031057404 0.1813577 1.161 1.7596283e-38
0.035679001 0.1813577 1.161 1.7689902e-38
0.054165378 0.18364538 1.161 1.3995987e-38
0.061097771 0.18364538 1.161 1.3994225e-38
0.028746607 0.18707693 1.161 1.1973847e-38
0.031827673 0.1874582 1.161 1.3633377e-38
0.035679001 0.18822077 1.161 1.520322e-38
0.048003253 0.1874582 1.161 1.8054013e-38
0.051854581 0.18593308 1.161 1.6115399e-38
0.003327836 0.19050846 1.161 9.9441268e-39
0.027591208 0.19050846 1.161 6.8159592e-39
0.031827673 0.19127104 1.161 8.8438945e-39
0.0368344 0.19050846 1.161 1.3450433e-38
0.04261139 0.19050846 1.161 1.6308457e-38
0.047232985 0.19050846 1.161 1.8333119e-38
0.086516544 0.1916523 1.161 1.5923127e-38
-0.027963944 0.16820908 1.1650001 1.2800026e-38
0.026526891 0.16820908 1.1650001 1.3256272e-38
-0.031496055 0.17194909 1.1670001 1.2616367e-38
-0.028383736 0.17223281 1.1663334 1.2431612e-38
0.027299812 0.17203504 1.1650002 1.4450853e-38
0.032323785 0.17280023 1.1650001 1.3162289e-38
-0.028011948 0.17654812 1.1670001 1.1970994e-38
-0.023326425 0.17853916 1.1650001 1.1417465e-38
-0.019848287 0.17968695 1.1650001 1.1048683e-38
0.033521488 0.17759441 1.1663334 1.5837011e-38
0.04290501 0.17800045 1.169 1.169187e-38
0.045231733 0.17800045 1.169 1.1419597e-38
-0.017574668 0.18360288 1.1680001 1.077317e-38
-0.011750783 0.18459445 1.1670001 1.0312197e-38
-0.0070951134 0.1842781 1.1650001 9.9430604e-39
-0.0036169749 0.1842781 1.1650001 9.8508676e-39
0.033483166 0.18313032 1.1650001 1.7782115e-38
0.037391394 0.18372118 1.1663334 1.7596647e-38
0.041717183 0.18250191 1.1683335 1.5011581e-38
0.04685472 0.18386041 1.1660001 1.5007981e-38
0.052033234 0.1842781 1.1650001 1.4176788e-38
-0.0059561138 0.18721427 1.169 1.0218926e-38
-0.0020767613 0.18776856 1.1676668 1.0034894e-38
0.0010205426 0.18886925 1.1650001 9.9423387e-39
0.033483166 0.18657367 1.1650001 1.6491772e-38
0.037347764 0.18733887 1.1650002 1.7230774e-38
0.041633535 0.1878816 1.1660001 1.7691011e-38
0.046622798 0.18733887 1.1650002 1.7686667e-38
0.08681462 0.18886925 1.1650001 1.2339805e-38
0.089286402 0.19264078 1.1670001 1.6110745e-38
-0.026988629 0.18092085 1.1730001 1.1510739e-38
-0.024653949 0.18092085 1.1730001 1.1325988e-38
-0.019984584 0.18554352 1.1730001 1.1049751e-38
-0.0083111757 0.18785487 1.1730001 1.0311837e-38
-0.022471486 0.18448186 1.1810001 1.0958282e-38
