# .PCD v0.7 - Point Cloud Data file format
VERSION 0.7
FIELDS x y z rgb
SIZE 4 4 4 4
TYPE F F F F
COUNT 1 1 1 1
WIDTH 1060
HEIGHT 1
VIEWPOINT 0 0 0 1 0 0 0
POINTS 1060
DATA ascii
-0.019200874 0.12386024 1.1270001 7.008691e-39
-0.013966916 0.12423036 1.1270001 6.9143233e-39
0.072767273 0.12497059 1.1270001 6.0863437e-39
-0.072288185 0.12793152 1.1270001 6.2620847e-39
-0.016957749 0.12719129 1.1270001 8.1107057e-39
-0.012471498 0.12719129 1.1270001 5.9934474e-39
0.07725352 0.12719129 1.1270001 5.8144133e-39
-0.073035888 0.13274303 1.1270001 6.4457557e-39
0.072767273 0.13274303 1.1270001 5.3545198e-39
0.076804899 0.13252096 1.1270001 5.264115e-39
-0.077522136 0.13718443 1.1270001 6.2628148e-39
-0.073035888 0.13607408 1.1270001 6.2620889e-39
0.078001231 0.13681433 1.1270001 5.7143144e-39
-0.082008392 0.14273617 1.1270001 1.0588044e-38
-0.079765268 0.14162582 1.1270001 7.2726437e-39
0.082861334 0.14273617 1.1270001 6.9957051e-39
0.054822266 0.14828791 1.1270001 5.6217796e-39
0.058186956 0.14828791 1.1270001 5.7125375e-39
0.062673204 0.14828791 1.1270001 6.3539441e-39
0.066785604 0.14865802 1.1270001 7.4566791e-39
0.070524141 0.14939825 1.1270001 9.4802858e-39
0.054822266 0.15161896 1.1270001 5.6225083e-39
0.058186956 0.15383965 1.1270001 5.7143424e-39
0.063794769 0.1527293 1.1270001 6.6301722e-39
0.066037893 0.1527293 1.1270001 7.3648506e-39
0.053326845 0.1568006 1.1270001 5.439196e-39
0.063794769 0.1571707 1.1270001 5.5274246e-39
0.066037893 0.1571707 1.1270001 6.0777173e-39
0.048092887 0.16494314 1.1270001 5.0660919e-39
0.050336014 0.16272245 1.1270001 5.160084e-39
0.063794769 0.16050175 1.1270001 5.2508307e-39
0.067159459 0.16050175 1.1270001 5.6181727e-39
0.043606639 0.16938454 1.1270001 5.7975403e-39
0.047345184 0.16864431 1.1270001 5.0657276e-39
0.048092887 0.17382592 1.1270001 4.8899473e-39
0.050336014 0.17382592 1.1270001 4.8020565e-39
-0.06854964 0.17715697 1.1270001 7.8229056e-39
0.046971325 0.17826732 1.1270001 4.2402829e-39
0.033512574 0.18492942 1.1270001 6.3539216e-39
0.039120387 0.18492942 1.1270001 5.8879381e-39
0.042485073 0.18492942 1.1270001 4.7819632e-39
0.046597473 0.1819685 1.1270001 4.8802601e-39
0.021175385 0.18715011 1.1270001 5.6213901e-39
0.032391012 0.18715011 1.1270001 5.2493972e-39
0.039120387 0.18715011 1.1270001 6.6244171e-39
0.042485073 0.18715011 1.1270001 6.6204654e-39
0.025661636 0.1960329 1.1270001 1.0951447e-38
-0.061820261 0.20491569 1.1270001 1.0217097e-38
0.014446008 0.20491569 1.1270001 1.4351838e-38
0.017810695 0.20491569 1.1270001 1.4443677e-38
0.022296946 0.20269498 1.1270001 1.4628429e-38
0.025661636 0.20380533 1.1270001 1.4536958e-38
0.0136983 0.20861685 1.1270001 1.4351498e-38
0.017810695 0.20713638 1.1270001 1.4443319e-38
0.04162043 0.031898219 1.1340001 1.7153408e-38
0.047639251 0.03264305 1.1340001 1.7427854e-38
0.051777191 0.034132708 1.1340001 1.8626017e-38
0.059676893 0.034132708 1.1340001 1.7610795e-38
0.048391603 0.037484445 1.1340001 1.7890988e-38
0.051777191 0.037484445 1.1340001 1.8072132e-38
0.058548365 0.037484445 1.1340001 1.7425329e-38
0.039363373 0.04977414 1.1340001 1.6505167e-38
0.04162043 0.04977414 1.1340001 1.5859797e-38
0.068705127 0.045305159 1.1340001 1.696579e-38
0.039311305 0.053054124 1.1325001 1.6137464e-38
0.04162043 0.053125873 1.1340001 1.5767602e-38
0.039259236 0.0563282 1.131 1.5950561e-38
0.04162043 0.057594854 1.1340001 1.5673973e-38
0.039259236 0.061899647 1.131 1.5580341e-38
0.04162043 0.062063836 1.1340001 1.5672538e-38
0.033720728 0.067650057 1.1340001 1.6318614e-38
0.037858672 0.066160403 1.1340001 1.5030404e-38
0.07321924 0.067650057 1.1340001 1.6230397e-38
-0.010264676 0.10981409 1.131 1.7883784e-38
-0.0080135893 0.10981409 1.131 1.8071777e-38
-0.002385872 0.10758551 1.131 1.6968675e-38
-0.07198482 0.11382952 1.1340001 5.2519167e-39
-0.068792932 0.11427125 1.131 5.2519181e-39
-0.046404831 0.11345711 1.1340001 7.0036155e-39
-0.042990044 0.11338133 1.13325 7.0936615e-39
-0.037011787 0.11284839 1.1327143 9.0254383e-39
-0.032862481 0.11010537 1.1340001 8.5691335e-39
-0.01103319 0.11372849 1.1330001 1.9084109e-38
-0.0066806111 0.11278676 1.1340001 1.8624941e-38
-0.0023922008 0.11233987 1.1340001 1.8442715e-38
0.00099338661 0.11233987 1.1340001 1.8717146e-38
-0.081389233 0.11904334 1.1340001 9.2018912e-39
-0.076498941 0.11829852 1.1340001 6.2620932e-39
-0.072265282 0.11776862 1.1325001 5.6199677e-39
-0.068042576 0.11724269 1.131 4.8849307e-39
-0.051626395 0.11819353 1.1330001 8.0256511e-39
-0.047439795 0.11769137 1.1317501 7.6568658e-39
-0.044030979 0.11649983 1.131 7.5628765e-39
-0.022270471 0.11724269 1.131 9.303093e-39
-0.018143479 0.11761412 1.131 8.2987011e-39
-0.012515764 0.11761411 1.131 1.0337822e-38
-0.0068918671 0.11769137 1.1317501 1.6047784e-38
-0.002389872 0.11784735 1.13325 1.6138534e-38
0.0021176159 0.11777011 1.1325001 1.6136025e-38
-0.087031871 0.12239507 1.1340001 1.2982977e-38
-0.082839385 0.12242365 1.1322001 1.0770991e-38
-0.076671742 0.12207128 1.131 5.8025513e-39
-0.073295109 0.12207128 1.131 5.8954644e-39
-0.068792932 0.12318557 1.131 5.1607833e-39
-0.053035326 0.12095699 1.131 8.1207334e-39
-0.048533153 0.12095699 1.131 7.8430549e-39
-0.023020834 0.12169985 1.131 7.2809464e-39
-0.017768299 0.12169985 1.131 5.4431715e-39
-0.01207099 0.12191259 1.1316001 5.3452208e-39
-0.0069063166 0.12239507 1.1340001 7.4743298e-39
-0.0035207295 0.12127782 1.1340001 1.282092e-38
0.0055075022 0.12127782 1.1340001 1.1074616e-38
0.068705127 0.12239507 1.1340001 5.8090618e-39
0.072042286 0.12231338 1.13325 7.0043623e-39
0.077733368 0.12239507 1.1340001 6.1756667e-39
-0.091303803 0.12764272 1.131 1.2981531e-38
-0.086916752 0.12669477 1.1325001 1.316557e-38
-0.082363538 0.12773862 1.1318573 1.0953947e-38
-0.076896854 0.12808846 1.131 6.2628008e-39
-0.017017936 0.12541415 1.131 7.5607787e-39
-0.010264676 0.12652844 1.131 4.7952672e-39
-0.0069010025 0.12678088 1.13325 3.6925083e-39
-0.0035207295 0.1257468 1.1340001 6.5465736e-39
0.070962183 0.1257468 1.1340001 5.8983763e-39
0.078142449 0.1270186 1.1334 5.8136973e-39
0.083155431 0.12652843 1.131 5.7143312e-39
0.086532064 0.12652844 1.131 5.5285148e-39
-0.086916752 0.13115785 1.1325001 1.3073351e-38
-0.082653083 0.13278584 1.1314286 1.1139419e-38
-0.076671742 0.13321416 1.131 6.3546405e-39
0.07773336 0.13021579 1.1340001 5.6318227e-39
0.083339743 0.1323919 1.1335 5.4391834e-39
0.087890118 0.13021579 1.1340001 5.6217894e-39
-0.082299456 0.13655704 1.131 9.3934669e-39
0.075276628 0.13655704 1.131 5.6282242e-39
0.083265714 0.13785243 1.1325001 5.6178196e-39
0.087890118 0.13915375 1.1340001 5.7114501e-39
0.08450453 0.14138824 1.1340001 6.2599478e-39
0.062980562 0.14566427 1.1325001 5.6181783e-39
0.079990417 0.14809172 1.1340001 9.2058527e-39
-0.081389233 0.15479518 1.1340001 9.7547063e-39
-0.078003645 0.15479518 1.1340001 7.9140461e-39
0.058393475 0.15215708 1.131 5.8058192e-39
0.061770108 0.15327138 1.131 6.1717192e-39
0.06852337 0.15327138 1.131 8.1016827e-39
0.072090715 0.1525607 1.1340001 9.3895251e-39
-0.078003645 0.15702967 1.1340001 7.5459922e-39
0.057748534 0.15803567 1.1316001 5.2544404e-39
0.061770108 0.15772854 1.131 5.3441165e-39
0.06852337 0.15772854 1.131 6.6298037e-39
0.052765757 0.1621857 1.131 5.2529971e-39
0.057342887 0.16240129 1.1325001 5.3441067e-39
0.062575087 0.16270152 1.1320001 5.4348562e-39
0.06644807 0.16373314 1.1340001 5.7110858e-39
-0.072266772 0.16797963 1.1325001 6.6283407e-39
0.051675204 0.16786839 1.1317501 5.1636601e-39
0.057419837 0.16708487 1.1340001 5.4395253e-39
0.063062482 0.16596763 1.1340001 5.8036345e-39
0.06644807 0.16596763 1.1340001 5.8972693e-39
-0.07179673 0.17322972 1.1340001 7.6385158e-39
-0.068792932 0.17444287 1.131 7.3626547e-39
0.05230796 0.17255691 1.13325 5.1690383e-39
0.057419837 0.17043662 1.1340001 5.6289305e-39
0.068705127 0.1749056 1.1340001 5.621051e-39
0.072090715 0.1749056 1.1340001 5.7143172e-39
-0.07198482 0.17862976 1.1340001 8.5590259e-39
0.050514672 0.17778575 1.131 4.6155156e-39
-0.072266772 0.18248461 1.1325001 9.295512e-39
0.068705127 0.18160906 1.1340001 8.3725187e-39
-0.071232468 0.18719529 1.1340001 9.6639329e-39
0.034757063 0.18781435 1.131 5.9833595e-39
0.037008151 0.18781435 1.131 6.6269268e-39
0.046012498 0.18781435 1.131 6.7123051e-39
0.028003803 0.19450009 1.131 9.6585786e-39
0.032570645 0.19153824 1.13325 6.4447034e-39
0.038234845 0.19054702 1.1340001 7.3662799e-39
0.042748958 0.19054702 1.1340001 9.6600065e-39
0.046073522 0.19141221 1.1325001 1.1407391e-38
-0.066718355 0.19948499 1.1340001 1.0216745e-38
0.028003803 0.19784296 1.131 1.2883207e-38
0.031450298 0.19716352 1.1335001 1.3159793e-38
-0.067846879 0.20283672 1.1340001 1.0492978e-38
-0.064461291 0.20283672 1.1340001 1.0217104e-38
0.028003803 0.2023001 1.131 1.4629507e-38
0.031087495 0.20246431 1.1340001 1.4721704e-38
0.022376087 0.20675728 1.131 1.4076344e-38
0.038369708 0.03313192 1.138 1.4756701e-38
0.043277256 0.033505648 1.138 1.5680809e-38
0.046297278 0.034253106 1.138 1.7424262e-38
0.056489863 0.034253106 1.138 1.7979218e-38
0.03497218 0.038737852 1.138 1.4381784e-38
0.038369708 0.037616663 1.138 1.3829693e-38
0.04289975 0.037616663 1.138 1.4480845e-38
0.046297278 0.037616663 1.138 1.7429293e-38
0.057056118 0.037616663 1.138 1.7517524e-38
0.03497218 0.040980224 1.138 1.4381062e-38
0.038369708 0.042101409 1.138 1.4749492e-38
0.04289975 0.042101409 1.138 1.4936419e-38
0.047429785 0.042101409 1.138 1.5957054e-38
0.051959828 0.042101409 1.138 1.7334928e-38
0.057622381 0.042101409 1.138 1.7333849e-38
0.063662425 0.041727684 1.138 1.7242015e-38
0.066682458 0.043222595 1.138 1.7149821e-38
0.039502218 0.046586152 1.138 1.6042403e-38
0.043126252 0.047258865 1.138 1.5672174e-38
0.047429785 0.047707342 1.138 1.5766911e-38
0.051959828 0.047707342 1.138 1.6595931e-38
0.057622373 0.047707338 1.1380001 1.687467e-38
0.064417429 0.048828524 1.138 1.6966145e-38
0.067588463 0.048155811 1.138 1.687395e-38
0.044032257 0.053313266 1.138 1.594696e-38
0.047052287 0.052939542 1.138 1.61328e-38
0.051959828 0.052192081 1.138 1.6595215e-38
0.044032257 0.057798013 1.138 1.5488866e-38
0.046297278 0.057798013 1.138 1.5306274e-38
0.044032257 0.06116157 1.138 1.5488869e-38
0.039502218 0.067888685 1.138 1.5307709e-38
0.04176724 0.065646313 1.138 1.558178e-38
0.071212493 0.067888685 1.138 1.6137119e-38
0.034405924 0.072373427 1.138 1.5584291e-38
0.037803456 0.071812838 1.138 1.5400265e-38
0.073477514 0.070131056 1.138 1.6322954e-38
0.075742535 0.070131056 1.138 1.6690647e-38
0.034217175 0.077605627 1.138 1.5305198e-38
0.037237201 0.077979356 1.138 1.5214801e-38
0.030442141 0.081342913 1.138 1.5390178e-38
-0.076013766 0.10825138 1.138 6.6305408e-39
-0.073748745 0.10825138 1.138 6.3546783e-39
-0.076013766 0.11273612 1.138 6.3539413e-39
-0.07299374 0.11124121 1.138 5.4352346e-39
-0.047701027 0.11273612 1.138 7.0958181e-39
-0.044303499 0.11049375 1.138 6.8206815e-39
-0.03864095 0.11049375 1.138 7.1880249e-39
-0.080543801 0.11722086 1.138 8.4647059e-39
-0.078278787 0.11722086 1.138 6.9953422e-39
-0.053363577 0.11722086 1.138 8.0213477e-39
0.073477514 0.11946324 1.138 8.755352e-39
0.076497547 0.11871579 1.138 7.0068777e-39
0.08027257 0.11946324 1.138 6.0788131e-39
0.089332648 0.11946324 1.138 5.4320046e-39
-0.0024006385 0.1228268 1.138 1.0698989e-38
0.0021294001 0.12170561 1.138 1.2084445e-38
0.083670102 0.1228268 1.138 5.6196216e-39
0.087067626 0.1228268 1.138 5.2490567e-39
0.092730179 0.12394799 1.138 5.9905663e-39
0.10518778 0.12170561 1.138 5.0718316e-39
-0.0035331482 0.12843272 1.138 5.6228222e-39
0.092730179 0.12619035 1.138 5.9909279e-39
0.096127704 0.12619035 1.138 5.9920069e-39
0.088200137 0.13291746 1.138 5.5292309e-39
0.088200137 0.13628101 1.138 5.5267085e-39
0.088200137 0.14300814 1.138 5.9015741e-39
0.075742535 0.14861406 1.138 1.0492263e-38
0.084047608 0.14786661 1.138 7.5499495e-39
0.088200137 0.14749289 1.138 5.8108148e-39
0.076875046 0.15197763 1.138 9.9423275e-39
0.081782587 0.15160391 1.138 8.5604931e-39
0.087067626 0.15085644 1.138 6.3542972e-39
-0.081676312 0.15758355 1.138 9.3866524e-39
0.072345003 0.15646237 1.138 8.3775438e-39
0.076875046 0.15646237 1.138 8.3761046e-39
0.08027257 0.15534118 1.138 7.5445615e-39
-0.078278787 0.16431066 1.138 6.6276401e-39
0.063284919 0.16879541 1.138 5.8990602e-39
0.066682458 0.16879541 1.138 5.898707e-39
-0.073748745 0.17103778 1.138 7.4544916e-39
0.057622373 0.17271957 1.138 5.7214834e-39
0.063284919 0.17215897 1.138 6.174568e-39
0.067814961 0.17328016 1.138 6.0809473e-39
-0.076013766 0.17776491 1.138 9.2940798e-39
-0.073748745 0.17776491 1.138 8.7430556e-39
0.053092334 0.17776491 1.138 4.8024138e-39
0.057622373 0.17664371 1.138 5.4438301e-39
0.063284919 0.17664371 1.138 5.5270575e-39
0.067437463 0.17701745 1.138 5.3412369e-39
0.072345003 0.17776491 1.138 5.7092893e-39
-0.076013766 0.18000728 1.138 9.5710255e-39
0.05233733 0.18150221 1.138 4.4289706e-39
0.057622373 0.18112847 1.138 4.0605538e-39
0.063511424 0.18180119 1.138 4.4185645e-39
0.067248709 0.18168905 1.138 6.716254e-39
0.071212493 0.18112847 1.138 8.9267617e-39
-0.073748745 0.18673439 1.138 9.7572076e-39
0.048562296 0.18785557 1.138 6.3524993e-39
-0.071483724 0.19121914 1.138 1.0032711e-38
0.03497218 0.19346151 1.138 8.653423e-39
0.038369708 0.19346151 1.138 1.0032026e-38
0.044032257 0.19346151 1.138 1.2328618e-38
0.03497218 0.19682506 1.138 1.3531095e-38
0.037237201 0.19682506 1.138 1.3802291e-38
0.034405924 0.20299159 1.138 1.4536968e-38
0.035095107 0.034373503 1.1420001 1.4382146e-38
0.062370878 0.034373503 1.1420001 1.7334208e-38
0.035095107 0.036623757 1.1420001 1.4104845e-38
0.063507371 0.037748884 1.1420001 1.7149818e-38
0.062370878 0.04337452 1.1420001 1.7242375e-38
0.063128546 0.046374857 1.1420001 1.7058343e-38
0.048732992 0.054625787 1.1420001 1.6318985e-38
0.052142464 0.054625787 1.1420001 1.6689198e-38
0.056688424 0.05350066 1.1420001 1.696435e-38
0.062370878 0.052375536 1.1420001 1.6874667e-38
0.048732992 0.058001168 1.1420001 1.6044908e-38
0.052142464 0.056876041 1.1420001 1.6873227e-38
0.062370878 0.056876041 1.1420001 1.6690277e-38
0.066916838 0.056876041 1.1420001 1.650696e-38
0.044187032 0.063626803 1.1420001 1.5581064e-38
0.047975332 0.062126637 1.1420001 1.5768691e-38
0.062370878 0.061376549 1.1420001 1.668992e-38
0.043429375 0.067377232 1.1420001 1.5766173e-38
0.048732992 0.065877058 1.1420001 1.5954882e-38
0.069189817 0.068127312 1.1420001 1.6229671e-38
0.032822128 0.074878074 1.1420001 1.5582499e-38
0.039641071 0.073752947 1.1420001 1.5399548e-38
0.043050542 0.070377566 1.1420001 1.5675058e-38
0.071462795 0.070377566 1.1420001 1.6413346e-38
0.032822128 0.079378575 1.1420001 1.5302678e-38
0.039641071 0.078253448 1.1420001 1.5215163e-38
0.032822128 0.081628829 1.1420001 1.5299437e-38
0.035095107 0.082753956 1.1420001 1.5214438e-38
0.030549144 0.086129338 1.1420001 1.5209773e-38
0.035095107 0.086129338 1.1420001 1.5031137e-38
0.027518503 0.09213002 1.1420001 1.4841703e-38
-0.049005181 0.11088213 1.1420001 7.6439654e-39
-0.042186238 0.11088213 1.1420001 6.9121625e-39
-0.08537288 0.11988314 1.1420001 1.2521981e-38
-0.078553937 0.11538263 1.1420001 7.1790188e-39
-0.052414652 0.11538263 1.1420001 8.5712817e-39
0.071462795 0.11988314 1.1420001 8.1107197e-39
0.078281738 0.11763289 1.1420001 6.4551402e-39
0.081691206 0.11875802 1.1420001 5.8047416e-39
0.085100681 0.11988314 1.1420001 5.61963e-39
0.098738566 0.11988314 1.1420001 5.8958414e-39
0.10214804 0.11988314 1.1420001 5.433794e-39
0.106694 0.11988314 1.1420001 5.3466249e-39
-0.089918837 0.12438365 1.1420001 1.3073729e-38
-0.0012725862 0.12438365 1.1420001 8.4837818e-39
0.002136885 0.12438365 1.1420001 7.656919e-39
0.098738566 0.1221334 1.1420001 5.8068827e-39
0.10214804 0.12325852 1.1420001 5.3462703e-39
0.10707283 0.12363356 1.1420001 5.4449133e-39
0.11010347 0.1221334 1.1420001 5.8162042e-39
-0.089918837 0.12663391 1.1420001 1.3073731e-38
-0.0012725862 0.12775904 1.1420001 5.7146507e-39
0.089646645 0.12775904 1.1420001 5.7136263e-39
0.093056113 0.12888417 1.1420001 5.8072569e-39
0.096465588 0.12888417 1.1420001 5.807617e-39
0.10328453 0.12775904 1.1420001 5.2533656e-39
0.106694 0.12775904 1.1420001 5.4402568e-39
0.093056113 0.13225955 1.1420001 5.5306672e-39
0.096465588 0.13225955 1.1420001 5.8054534e-39
0.10328453 0.13225955 1.1420001 5.5256351e-39
0.106694 0.13225955 1.1420001 5.6174706e-39
0.096465588 0.13788518 1.1420001 5.7157493e-39
0.10328453 0.13563493 1.1420001 5.6174664e-39
0.10555751 0.13676006 1.1420001 5.3423257e-39
0.082827702 0.15251184 1.1420001 8.1910015e-39
0.087373659 0.15288688 1.1420001 6.2617442e-39
0.073735774 0.15813747 1.1420001 8.1013198e-39
0.082827702 0.15588722 1.1420001 6.5340179e-39
0.08623717 0.15588722 1.1420001 5.7082215e-39
-0.07779628 0.16863868 1.1420001 7.5467055e-39
-0.077417448 0.17276412 1.1420001 8.742348e-39
-0.074007973 0.17388923 1.1420001 8.0065766e-39
-0.077417448 0.17726462 1.1420001 9.4784711e-39
-0.077417448 0.18176512 1.1420001 9.9398066e-39
0.073735774 0.18064 1.1420001 8.4657709e-39
-0.076280951 0.18514051 1.1420001 9.9408814e-39
-0.074007973 0.18964101 1.1420001 9.9412373e-39
0.052142464 0.18739077 1.1420002 7.0000057e-39
0.056688424 0.18626563 1.1420001 7.4609783e-39
0.062370878 0.18701571 1.1420002 1.0394682e-38
0.068053328 0.18626563 1.1420001 1.2514077e-38
-0.071734995 0.19414152 1.1420001 1.0124905e-38
0.04191405 0.19414152 1.1420001 1.2050606e-38
0.039641071 0.1975169 1.1420001 1.4261822e-38
0.043050542 0.1975169 1.1420001 1.4627367e-38
0.04646001 0.1975169 1.1420001 1.4627724e-38
0.03812575 0.20239246 1.1420001 1.4352938e-38
0.043429375 0.20239246 1.1420001 1.4536256e-38
0.04646001 0.20201741 1.1420001 1.4535896e-38
0.032937091 0.034493901 1.146 1.4843478e-38
0.032937091 0.036752038 1.146 1.4383219e-38
0.06258934 0.053688053 1.146 1.6874307e-38
0.068291694 0.053688053 1.146 1.6598436e-38
0.0523251 0.059333391 1.146 1.678247e-38
0.056506824 0.057827972 1.1460001 1.6965066e-38
0.06258934 0.058430135 1.146 1.6689916e-38
0.067151219 0.059333391 1.146 1.6506241e-38
0.046622742 0.063849665 1.146 1.5582868e-38
0.051944941 0.062344246 1.1460001 1.6600241e-38
0.055746511 0.061591528 1.146 1.6599164e-38
0.06258934 0.062946416 1.146 1.6690282e-38
0.067151219 0.062720597 1.146 1.6597373e-38
0.047383055 0.067613229 1.1460001 1.5859808e-38
0.051184628 0.067236871 1.146 1.5955242e-38
0.055746511 0.066107802 1.146 1.7794824e-38
0.06258934 0.068365932 1.146 1.6783555e-38
0.067911536 0.066860512 1.1460001 1.6322226e-38
0.043201327 0.072882205 1.146 1.5583582e-38
0.047763214 0.071753137 1.146 1.5675061e-38
0.051944941 0.072129495 1.1460001 1.595489e-38
0.061068714 0.071376786 1.1460001 1.687432e-38
0.068671852 0.071376786 1.1460001 1.6690642e-38
0.071713105 0.072882205 1.146 1.6690287e-38
0.043201327 0.077398479 1.146 1.530736e-38
0.047763214 0.077398479 1.146 1.5583225e-38
0.0523251 0.077398479 1.146 1.6047087e-38
0.055746511 0.077398479 1.146 1.6969388e-38
0.060308397 0.077398479 1.1460001 1.4208219e-38
0.069432162 0.077398479 1.146 1.7703722e-38
0.071713105 0.077398479 1.146 1.7242742e-38
0.031796619 0.084172882 1.146 1.5299794e-38
0.038639445 0.083043814 1.146 1.5031846e-38
0.043201327 0.081914745 1.146 1.5123686e-38
0.048903685 0.081914745 1.146 1.5400274e-38
0.032176778 0.087936446 1.1460001 1.4937504e-38
0.037498973 0.087560087 1.146 1.4755269e-38
0.043201327 0.086431019 1.146 1.5585726e-38
0.046622742 0.086431019 1.146 1.5492455e-38
0.031416461 0.09245272 1.1460001 1.4752747e-38
0.03521803 0.092076361 1.146 1.4936429e-38
0.04206086 0.093205422 1.146 1.5954523e-38
0.02381332 0.097721696 1.146 1.3372698e-38
0.028375205 0.097721696 1.1460001 1.447976e-38
0.043201327 0.095463559 1.146 1.5586099e-38
0.046622746 0.097721696 1.1460001 1.5492823e-38
0.04206086 0.10223797 1.146 1.5677574e-38
0.046622742 0.10223797 1.146 1.5400985e-38
-0.048036359 0.10901237 1.146 7.1855124e-39
-0.04119353 0.10901237 1.146 6.9161156e-39
-0.037772119 0.10901237 1.146 7.1001397e-39
0.019251436 0.10901237 1.146 1.6139995e-38
0.047763214 0.10675424 1.146 1.521551e-38
-0.052218087 0.11277594 1.1460001 1.0590945e-38
-0.049176831 0.11352865 1.146 7.5521215e-39
0.019251436 0.11239958 1.146 1.6229298e-38
0.099084415 0.11352865 1.146 7.3742028e-39
-0.083390959 0.11804491 1.146 1.0860322e-38
0.073994048 0.11804491 1.146 8.7589492e-39
0.078555934 0.11578678 1.146 6.633419e-39
0.08311782 0.11804491 1.146 5.349157e-39
0.085398756 0.11804491 1.146 6.3622159e-39
0.094522528 0.11578678 1.146 8.1135573e-39
0.099084415 0.11691585 1.146 6.3546685e-39
0.10250583 0.11691585 1.146 5.9848154e-39
0.1070677 0.11804491 1.146 6.1677675e-39
-0.092970923 0.12346444 1.146 1.2981888e-38
-0.087952845 0.12030305 1.146 1.2708174e-38
0.099084415 0.12481932 1.146 5.8086834e-39
0.11185769 0.12256118 1.146 6.0913519e-39
0.11505101 0.12369025 1.146 6.3672102e-39
-0.093655199 0.12707746 1.146 1.298189e-38
0.0010038986 0.12707746 1.146 5.7179017e-39
0.099084415 0.12820652 1.146 5.807617e-39
0.10136536 0.12820652 1.146 5.5303113e-39
0.11124944 0.12783018 1.1460001 6.0888394e-39
0.099084415 0.1327228 1.146 5.8032982e-39
0.10136536 0.1327228 1.146 5.8022206e-39
0.11048912 0.1327228 1.146 5.8944078e-39
0.093382061 0.13723907 1.146 5.6214083e-39
0.098324105 0.13686271 1.1460001 5.7125207e-39
0.10212567 0.13761543 1.1460001 5.619616e-39
0.10820818 0.13723907 1.146 5.4356003e-39
0.10592724 0.14062627 1.146 5.2526482e-39
-0.082250491 0.16320762 1.146 8.2831943e-39
-0.081110023 0.16772389 1.1460001 8.1005939e-39
-0.081110023 0.17336923 1.146 9.6653763e-39
-0.081110023 0.1778855 1.146 1.0217464e-38
-0.07882908 0.17675643 1.146 9.7554139e-39
-0.081110023 0.1812727 1.146 1.0400783e-38
-0.07882908 0.18353084 1.146 1.0124917e-38
0.073994048 0.18353084 1.146 1.1960897e-38
-0.076548137 0.18804711 1.146 9.9419576e-39
-0.076548137 0.19030525 1.146 1.0125986e-38
-0.074267194 0.19369245 1.146 1.0309655e-38
0.048903685 0.19369245 1.146 1.279102e-38
0.052705258 0.1933161 1.1460001 1.3986682e-38
0.05665889 0.19211176 1.146 1.3525701e-38
0.062969498 0.1925634 1.146 1.4443689e-38
0.067151219 0.19256338 1.146 1.4903941e-38
0.048903685 0.19820872 1.146 1.4628083e-38
0.052705258 0.19858508 1.1460001 1.4627737e-38
0.056506824 0.19858508 1.1460001 1.4627378e-38
0.060308397 0.19933778 1.146 1.4351873e-38
0.05822999 0.059540492 1.1500001 1.687359e-38
0.053652182 0.064072527 1.1500001 1.66928e-38
0.057467025 0.063317195 1.1500001 1.6782117e-38
0.053652182 0.067471549 1.1500001 1.6968309e-38
0.057467025 0.067849219 1.1500001 1.7518958e-38
0.06128186 0.067093879 1.1500001 1.6783198e-38
0.065096699 0.067471549 1.1500001 1.6598809e-38
0.053652182 0.070870578 1.1500001 1.6785001e-38
0.05708554 0.072003588 1.1500001 1.7519679e-38
0.062807798 0.07313659 1.1500001 1.6967599e-38
0.065859668 0.072381258 1.1500001 1.7243454e-38
0.057657763 0.07766863 1.1500001 1.5771937e-38
0.062807798 0.07766863 1.1500001 1.5679382e-38
0.067099497 0.07766863 1.1500001 1.733638e-38
0.073107868 0.07766863 1.1500001 1.7059789e-38
0.04335212 0.084466681 1.1500001 1.5032565e-38
0.047548443 0.083711348 1.1500001 1.5399553e-38
0.052507732 0.083333671 1.1500001 1.5586465e-38
0.05708554 0.083333671 1.1500001 1.5863764e-38
0.061663345 0.083333671 1.1500001 1.4941446e-38
0.067385614 0.083333671 1.1500001 1.6050681e-38
0.073107868 0.083333671 1.1500001 1.7339614e-38
0.039918762 0.088998713 1.1500001 1.5586455e-38
0.04335212 0.088998713 1.1500001 1.6321489e-38
0.048311412 0.08824338 1.1500001 1.5584649e-38
0.052577715 0.087980315 1.1515 1.5585031e-38
0.057234459 0.08809492 1.153 1.5953815e-38
0.061783247 0.088038355 1.1522499 1.5863036e-38
0.067501806 0.088019505 1.152 1.5588977e-38
0.072788969 0.087565422 1.151 1.7156672e-38
0.033052053 0.091264732 1.1500001 1.4754189e-38
0.038774312 0.092397742 1.1500001 1.5399209e-38
0.043733604 0.092020079 1.1500001 1.6045991e-38
0.047929928 0.092397742 1.1500001 1.5492822e-38
0.052644707 0.092638776 1.153 1.558395e-38
0.056087021 0.091502808 1.153 1.5768345e-38
0.061824206 0.091502808 1.153 1.586161e-38
-0.021938715 0.097182631 1.153 9.8555451e-39
0.026185343 0.096929774 1.1500001 1.4016262e-38
0.031907603 0.096929774 1.1500001 1.4754185e-38
0.037629858 0.096929774 1.1500001 1.5492113e-38
0.04335212 0.098062783 1.1500001 1.5493903e-38
0.049074378 0.096929774 1.1500001 1.5583582e-38
0.051497269 0.097182631 1.153 1.5583226e-38
0.022751987 0.10259482 1.1500001 1.4476522e-38
0.027100906 0.10304802 1.1500001 1.5587195e-38
0.031907603 0.10259482 1.1500001 1.5495004e-38
0.037629858 0.10259482 1.1500001 1.5678303e-38
0.043581009 0.10259482 1.1500001 1.5493541e-38
0.048502155 0.10316132 1.1500001 1.5308429e-38
0.051497269 0.10172649 1.153 1.5399909e-38
-0.081393123 0.10939287 1.1500001 7.731838e-39
-0.056361835 0.10740631 1.153 9.7590475e-39
-0.052885849 0.10847094 1.1522499 9.5760926e-39
-0.044770669 0.10939287 1.1500001 6.8228423e-39
-0.035707965 0.10967824 1.153 7.1926885e-39
-0.032265652 0.10967824 1.153 7.4656782e-39
-0.028823338 0.10967824 1.153 7.6461192e-39
0.022783156 0.10840108 1.1515 1.5861967e-38
0.027365442 0.10840254 1.1515 1.5494269e-38
0.031969283 0.10847241 1.1522499 1.5766537e-38
0.037645224 0.10830742 1.1505001 1.5583943e-38
0.04335212 0.10825986 1.1500001 1.5306274e-38
0.047929928 0.10939287 1.1500001 1.5122231e-38
0.051497269 0.10627034 1.153 1.5308065e-38
0.09624733 0.10967824 1.153 8.4816056e-39
0.12034351 0.10967824 1.153 7.6446591e-39
-0.053926285 0.11165889 1.1500001 1.2524511e-38
0.022428861 0.11270748 1.1530001 1.586087e-38
0.026253652 0.11195017 1.153 1.5582135e-38
0.033138275 0.11195017 1.153 1.5674685e-38
0.036963068 0.11270748 1.1530001 1.521515e-38
0.041687507 0.1123725 1.1515 1.4938206e-38
0.047993936 0.11180453 1.1515 1.5030033e-38
0.078135714 0.11326666 1.151 8.0210156e-39
0.081330642 0.11308613 1.153 7.286312e-39
0.090510145 0.11308613 1.153 9.4114736e-39
0.096935794 0.11285894 1.153 9.5883077e-39
0.10299928 0.1140735 1.1515 6.1749618e-39
0.10810419 0.1134648 1.1530001 7.6446661e-39
0.11231145 0.11422209 1.153 7.735424e-39
0.1169012 0.11308613 1.153 7.8236651e-39
0.12110847 0.1134648 1.1530001 6.1688269e-39
0.14329225 0.11422209 1.153 7.7329016e-39
0.14558713 0.11422209 1.153 8.2860698e-39
-0.090784952 0.11876596 1.153 1.2707455e-38
-0.08717294 0.11739971 1.15075 1.2339387e-38
-0.082537577 0.11619093 1.1500001 9.6621645e-39
0.018174181 0.11619093 1.1500001 1.5856567e-38
0.021663902 0.11649402 1.153 1.5765433e-38
0.074446023 0.11649402 1.153 9.6798153e-39
0.076541223 0.11619093 1.1500001 8.1103372e-39
0.082372278 0.11634247 1.1515 5.5378447e-39
0.087297291 0.1170473 1.151 7.5646968e-39
0.091419101 0.11732394 1.1500001 7.8373334e-39
0.10758306 0.11634247 1.1515 6.8099028e-39
0.11216533 0.11747548 1.1515 6.8195801e-39
0.11674912 0.11747548 1.1515 6.5476554e-39
0.12253302 0.11752698 1.152 6.0809403e-39
0.12837557 0.11876596 1.153 6.3614648e-39
0.14214481 0.11876596 1.153 6.814904e-39
0.14558713 0.11876596 1.153 7.0911279e-39
-0.095374703 0.12103789 1.153 1.3073725e-38
-0.09181428 0.12088042 1.1515 1.2982606e-38
0.11697853 0.1214783 1.1500001 6.3668514e-39
0.12242567 0.12196192 1.151 6.3582418e-39
0.12837557 0.12217385 1.153 6.1785169e-39
0.13258284 0.12255251 1.1530001 6.2724992e-39
0.0010074025 0.12978703 1.1500001 4.6144324e-39
0.0055852095 0.12525499 1.1500001 6.7407179e-39
0.11316368 0.12978703 1.1500001 6.1749324e-39
0.11682593 0.12797421 1.1500001 6.0841647e-39
0.12208349 0.12696779 1.1508573 5.8943994e-39
0.12804155 0.126388 1.1500001 5.5270603e-39
0.13261935 0.12752102 1.1500001 7.5488705e-39
0.13755506 0.12558174 1.153 4.5157866e-39
0.11316368 0.13318606 1.1500001 5.8944036e-39
0.11674912 0.13336125 1.1515 5.7103655e-39
0.12292524 0.13268152 1.153 5.2504762e-39
0.12837557 0.13239752 1.153 8.0076934e-39
0.13296533 0.13353349 1.153 1.1409536e-38
0.11209303 0.13780865 1.15075 5.5299469e-39
0.1169012 0.13807735 1.153 5.3477011e-39
0.12217941 0.13785015 1.153 4.7938112e-39
0.12722814 0.13694139 1.153 9.6657392e-39
0.093708001 0.14225014 1.1500001 5.8115323e-39
0.098412514 0.14243567 1.1515 5.7218534e-39
0.10286362 0.14225012 1.1500001 5.2558712e-39
0.10782291 0.14262781 1.1500001 5.254802e-39
0.11231145 0.1426212 1.153 5.2573159e-39
0.1169012 0.14148524 1.153 5.1654818e-39
0.14329225 0.14375716 1.153 5.6174538e-39
0.14520833 0.14338313 1.1500001 5.8961903e-39
0.092805021 0.14716506 1.153 5.4477762e-39
0.097968481 0.14659709 1.153 5.5388956e-39
0.10299779 0.14697509 1.1515 5.1625965e-39
0.10751224 0.14687715 1.15075 5.4373898e-39
0.11231145 0.14716506 1.153 5.3466263e-39
0.14558713 0.1460291 1.153 6.0841647e-39
0.092563547 0.15244721 1.1500001 5.3498493e-39
0.098542199 0.15170893 1.153 5.0746903e-39
0.10313195 0.15170893 1.153 5.0675212e-39
0.10758306 0.15151156 1.1515 5.4330738e-39
0.11192898 0.15133028 1.1530001 5.4355793e-39
0.14329225 0.15057296 1.153 6.4482739e-39
0.14558713 0.15057296 1.153 6.0863129e-39
0.09624733 0.15511681 1.153 5.162228e-39
0.10657427 0.15511681 1.153 5.7082117e-39
-0.082537577 0.16151127 1.1500001 8.4661479e-39
-0.083900325 0.16761242 1.153 9.2998392e-39
0.082478076 0.16874838 1.153 6.3586006e-39
0.088215269 0.16761242 1.153 5.8962043e-39
0.091657579 0.16874838 1.153 5.7125319e-39
-0.086195201 0.17329223 1.153 1.0496933e-38
-0.083900325 0.17215627 1.153 9.9430436e-39
0.07883013 0.17284137 1.1500001 5.9026447e-39
0.082372278 0.17193232 1.1515 5.8983427e-39
0.092805021 0.17102031 1.153 5.8954798e-39
-0.086195201 0.17556417 1.153 1.0589485e-38
-0.08368203 0.17510737 1.1500001 1.0312176e-38
0.077685677 0.17737339 1.1500001 5.9876601e-39
0.082121633 0.1771041 1.1512001 5.8904436e-39
0.085920393 0.17556417 1.153 5.7053419e-39
0.090510145 0.17556417 1.153 5.6163846e-39
-0.081393123 0.18417145 1.1500001 1.0401504e-38
0.077787004 0.18327866 1.1515 1.0856359e-38
0.081224836 0.18327865 1.1515 1.1223732e-38
-0.079104222 0.18757048 1.1500001 1.0218544e-38
0.069674514 0.18870348 1.1500001 1.4719554e-38
0.07325165 0.1879382 1.1522499 1.407634e-38
0.077505857 0.18768112 1.1530001 1.4351852e-38
0.081330642 0.18692382 1.153 1.4630601e-38
-0.078341261 0.19248018 1.1500001 1.049441e-38
0.060518894 0.19323552 1.1500001 1.5087615e-38
0.068911545 0.19248018 1.1500001 1.5178726e-38
0.073298588 0.19260363 1.153 1.5086172e-38
0.051363282 0.19663455 1.1500001 1.4722078e-38
0.05822999 0.19663455 1.1500001 1.4903238e-38
0.06128186 0.19701223 1.1500001 1.4811402e-38
0.068003275 0.19732855 1.15075 1.4442616e-38
0.072151147 0.19714749 1.153 1.4442972e-38
0.019436222 0.033685088 1.1570001 1.3998197e-38
0.021739058 0.033685088 1.1570001 1.3996756e-38
0.030950403 0.034824993 1.1570001 1.4565465e-38
0.030950403 0.037104804 1.1570001 1.4194523e-38
0.057816826 0.093340129 1.1570001 1.5676507e-38
0.06203869 0.094100066 1.1570001 1.5769055e-38
0.066644356 0.092960157 1.1570001 1.5306627e-38
0.070098616 0.091820255 1.1570001 1.5131606e-38
-0.027771916 0.098659687 1.1570001 6.6413083e-39
-0.024317663 0.098659687 1.1570001 8.2039439e-39
0.053978764 0.097519785 1.1570001 1.5582871e-38
-0.035831843 0.10207941 1.1570001 6.0859948e-39
-0.032377589 0.10321931 1.1570001 6.3629404e-39
-0.028923335 0.10207941 1.1570001 6.0885115e-39
-0.022014827 0.1009395 1.1570001 9.0351339e-39
-0.053103112 0.10549912 1.1570001 6.8156453e-39
-0.049648859 0.10777893 1.1570001 6.9996806e-39
-0.041588932 0.10777893 1.1570001 7.1001453e-39
-0.038134675 0.10777893 1.1570001 7.0090245e-39
-0.095705584 0.11461835 1.1570001 1.2890057e-38
-0.092251331 0.11233854 1.1570001 1.279786e-38
-0.056557365 0.11005874 1.1570001 1.1141953e-38
0.024041895 0.11461835 1.1570001 1.5674314e-38
0.027879953 0.11385842 1.1570001 1.5398094e-38
0.030950403 0.11233855 1.1570001 1.5582128e-38
0.035556078 0.11461835 1.1570001 1.5306264e-38
0.051675927 0.11005874 1.1570001 1.5212988e-38
0.083915628 0.11347845 1.1570001 7.4807576e-39
0.087369889 0.11233854 1.1570001 9.8717217e-39
0.092551269 0.1117686 1.1570001 8.4887942e-39
0.10233831 0.11233855 1.1570001 6.6341435e-39
0.10809541 0.11119865 1.1570001 1.0500885e-38
0.11270109 0.11119864 1.1570001 1.1144452e-38
0.11730675 0.11005874 1.1570001 1.1048671e-38
0.12306384 0.11119865 1.1570001 6.5386772e-39
0.12766951 0.11461835 1.1570001 6.0816522e-39
0.13342661 0.11461835 1.1570001 6.5476399e-39
0.13803229 0.11233856 1.1570001 6.450785e-39
0.14240769 0.11188259 1.1570001 6.9056619e-39
0.14609221 0.11119865 1.1570001 7.2737283e-39
-0.095705584 0.11689816 1.1570001 1.2889697e-38
-0.09263514 0.1176581 1.1570001 1.2706022e-38
0.040161747 0.11689816 1.1570001 1.5123305e-38
0.072401449 0.11689816 1.1570001 1.0413448e-38
0.12882093 0.11689816 1.1570001 6.3614662e-39
0.13304281 0.11841804 1.1570001 6.8242198e-39
0.13803229 0.11803807 1.1570001 6.8231408e-39
0.14263797 0.11689816 1.1570001 7.6421395e-39
0.14609221 0.11689816 1.1570001 8.6534104e-39
0.13457803 0.12145779 1.1570001 6.641625e-39
0.13803229 0.12259769 1.1570001 5.8086554e-39
0.14225416 0.12221773 1.1570001 5.3430277e-39
0.12766951 0.13893634 1.1570001 9.3898726e-39
0.13227519 0.13741647 1.1570001 1.1868341e-38
0.11730675 0.14425589 1.1570001 5.0736435e-39
0.12191242 0.143116 1.1570001 4.6112276e-39
0.12536667 0.14197609 1.1570001 5.4380904e-39
0.096581228 0.14881551 1.1570001 5.5399704e-39
0.11730675 0.1476756 1.1570001 5.1622378e-39
0.12306384 0.1476756 1.1570001 4.4243196e-39
0.14378938 0.14653571 1.1570001 5.9876671e-39
0.14609221 0.14881551 1.1570001 6.0873919e-39
0.093126975 0.15109533 1.1570001 5.3545114e-39
0.095429808 0.15223524 1.1570001 5.2608808e-39
0.1138525 0.15337513 1.1570001 5.4409533e-39
0.11730675 0.15109533 1.1570001 5.3451745e-39
0.091975555 0.15679485 1.1570001 5.3444683e-39
0.097732648 0.15793476 1.1570001 5.4370198e-39
0.10233833 0.15679488 1.1570001 5.5256141e-39
0.10809541 0.15679485 1.1570001 5.8972665e-39
0.11154966 0.15565495 1.1570001 5.5335062e-39
-0.086494237 0.16363429 1.1570001 1.0956114e-38
0.088521302 0.16363429 1.1570001 5.5288637e-39
0.092205845 0.16295035 1.1570001 5.3466319e-39
0.096581236 0.16135448 1.1570001 5.3466277e-39
0.10233831 0.16021457 1.1570001 5.8040003e-39
-0.086494237 0.1693338 1.1570001 1.0313257e-38
0.086218461 0.16819391 1.1570001 6.0798725e-39
0.091975555 0.167054 1.1570001 5.5295854e-39
0.096581228 0.1693338 1.1570001 5.6214125e-39
-0.086494237 0.17161362 1.1570001 1.0405094e-38
0.087369882 0.17275353 1.1570001 5.9862377e-39
0.091591746 0.17313349 1.1570001 5.8940421e-39
0.095429808 0.17275351 1.1570001 5.895477e-39
0.087753698 0.17769311 1.1570001 6.1638005e-39
0.092359364 0.17769311 1.1570001 7.2740885e-39
0.095429808 0.17731315 1.1570001 7.7346939e-39
0.083915628 0.18187276 1.1570001 7.6356865e-39
0.087369882 0.18187276 1.1570001 9.2026255e-39
0.091975555 0.18187276 1.1570001 1.2609497e-38
0.095429808 0.18073286 1.1570001 1.3342389e-38
0.079309955 0.1898521 1.1570001 1.4536967e-38
0.082764208 0.1875723 1.1570001 1.4168199e-38
0.088521302 0.18643239 1.1570001 1.4903223e-38
0.078158543 0.19327182 1.1570001 1.4810679e-38
0.081612796 0.19213191 1.1570001 1.4720289e-38
0.024125014 0.034945391 1.161 1.3996058e-38
0.027591208 0.034945391 1.161 1.4185151e-38
0.032212805 0.032657702 1.161 1.576436e-38
0.01834802 0.037233084 1.161 1.4088597e-38
0.024125014 0.037233084 1.161 1.4272993e-38
0.028746607 0.037233084 1.161 1.3908928e-38
0.022969615 0.042952314 1.161 1.4088955e-38
-0.01862474 0.094425388 1.161 7.2791388e-39
0.071881495 0.093662821 1.161 1.6145762e-38
-0.03595572 0.099000774 1.161 5.9930831e-39
-0.032489523 0.099000774 1.161 5.6282494e-39
-0.019780139 0.096713081 1.161 8.9332441e-39
0.057631575 0.097856931 1.161 1.5491754e-38
0.06225317 0.097856931 1.161 1.5400274e-38
0.065719366 0.096713081 1.161 1.5671088e-38
-0.047509708 0.10128847 1.161 8.5773787e-39
-0.041732714 0.10243231 1.161 8.1106791e-39
-0.038266517 0.10243231 1.161 7.1887368e-39
-0.032489523 0.10128847 1.161 4.9832542e-39
-0.026712531 0.10128847 1.161 6.3704738e-39
-0.024401734 0.10128847 1.161 7.5650485e-39
0.054165378 0.10243231 1.161 1.5491745e-38
0.056476176 0.10128847 1.161 1.5583585e-38
0.13850948 0.10243231 1.161 7.0990579e-39
0.14197569 0.10357615 1.161 6.6377126e-39
-0.047509711 0.10738897 1.161 6.4519032e-39
-0.041732714 0.10586385 1.161 7.5578851e-39
-0.036725987 0.10662641 1.161 7.0083042e-39
-0.032104392 0.10662641 1.161 6.7317173e-39
-0.029023329 0.10586385 1.161 6.9146722e-39
-0.022090936 0.10586385 1.161 9.0340619e-39
0.054165378 0.1070077 1.161 1.5398464e-38
0.11309072 0.10815154 1.161 1.4637085e-38
0.11771231 0.10815154 1.161 1.2150356e-38
0.12117851 0.10815154 1.161 8.1056596e-39
0.13781625 0.10723647 1.1610001 6.7266937e-39
0.14313108 0.10700769 1.161 5.8944163e-39
0.14659728 0.10815154 1.161 5.9848098e-39
0.053009979 0.11158308 1.161 1.5212984e-38
0.056476176 0.11043923 1.161 1.5396656e-38
0.078428753 0.11158308 1.161 1.0883019e-38
0.083050348 0.11043923 1.161 1.1067388e-38
0.10038133 0.11043923 1.161 8.3811493e-39
0.12734064 0.11196437 1.161 6.2610085e-39
0.13119197 0.11196437 1.161 6.5401192e-39
0.13504329 0.11158308 1.161 6.5429918e-39
0.024125014 0.11730231 1.161 1.5581405e-38
0.027591208 0.11730231 1.161 1.5306973e-38
0.032212805 0.11501462 1.161 1.5398455e-38
0.0368344 0.11730231 1.161 1.5030755e-38
0.073807158 0.11501462 1.161 1.2719738e-38
0.13504329 0.11730231 1.161 7.0082439e-39
0.12734064 0.14399207 1.161 5.711799e-39
0.13119197 0.1409418 1.161 1.1686472e-38
0.12117851 0.14818615 1.161 4.7927406e-39
0.1258001 0.14818615 1.161 4.3317639e-39
0.11771231 0.15390539 1.161 5.3501912e-39
0.12233391 0.15161769 1.161 4.975327e-39
0.093448937 0.15848076 1.161 5.2529943e-39
0.095759735 0.15848076 1.161 5.345906e-39
-0.089104064 0.16305615 1.161 1.1324537e-38
0.10153673 0.16305615 1.161 5.7125305e-39
0.10731372 0.16191231 1.161 5.9923362e-39
-0.088526361 0.16763154 1.161 1.0680965e-38
0.096915141 0.16648769 1.161 5.6224985e-39
0.10153672 0.16877538 1.161 5.4363038e-39
-0.089104064 0.17335077 1.161 1.0589491e-38
0.098070532 0.17335077 1.161 5.7103669e-39
0.1011516 0.17296949 1.161 4.8816937e-39
-0.087948665 0.17792615 1.161 1.0773516e-38
-0.084482469 0.17907 1.161 1.0496202e-38
0.098070532 0.17678231 1.161 6.6254877e-39
-0.086793266 0.1813577 1.161 1.0773869e-38
-0.084482469 0.18250154 1.161 1.0587683e-38
0.096915133 0.18250154 1.161 1.4354722e-38
-0.082171671 0.18822077 1.161 1.0494774e-38
0.084205747 0.18822077 1.161 1.4905383e-38
0.086516544 0.18707693 1.161 1.4628802e-38
0.09190841 0.1874582 1.161 1.5271272e-38
0.084205747 0.19050846 1.161 1.4721355e-38
0.08767195 0.19165231 1.161 1.4811394e-38
0.092293538 0.19050846 1.161 1.4995057e-38
0.02420813 0.032770216 1.1650001 1.363089e-38
0.02768627 0.032770216 1.1650001 1.456042e-38
0.018411234 0.039656937 1.1650001 1.418079e-38
0.022662293 0.038891748 1.1650002 1.4272627e-38
0.027299812 0.038891748 1.1650002 1.3996421e-38
0.031164408 0.039656937 1.1650001 1.428239e-38
0.018797694 0.042717706 1.1650002 1.418079e-38
0.021889372 0.041952513 1.1650001 1.4272624e-38
0.02768627 0.041952513 1.1650001 1.3997135e-38
0.067491636 0.098576665 1.1650002 1.4383589e-38
0.071865842 0.098364621 1.1670001 1.4024559e-38
0.07547909 0.096227765 1.169 1.9826741e-38
0.11503334 0.099682949 1.169 5.6250096e-39
0.13364711 0.097379498 1.169 6.2689385e-39
0.13628148 0.09857668 1.1650002 5.9001672e-39
0.14014606 0.099341862 1.1650001 6.8292967e-39
-0.046127558 0.10316782 1.1650002 7.6529309e-39
-0.026804563 0.10393301 1.1650001 7.1962772e-39
-0.023326425 0.10393301 1.1650001 8.2104109e-39
0.058216594 0.10316782 1.1650002 1.5216958e-38
0.06246765 0.10278522 1.1650001 1.5034009e-38
0.067278966 0.10305089 1.1680001 1.484816e-38
0.071601227 0.10352205 1.169 1.4110593e-38
0.07547909 0.10428986 1.169 1.4565825e-38
0.082459249 0.10428986 1.169 1.4566551e-38
0.10805318 0.10428986 1.169 1.196991e-38
0.11154325 0.10313813 1.169 9.6657686e-39
0.11567505 0.10340309 1.1676668 8.8374569e-39
0.1336471 0.10313813 1.169 7.2877862e-39
0.13550855 0.10278521 1.1650001 7.2848981e-39
-0.046514016 0.10622858 1.1650001 6.6359344e-39
-0.033760842 0.10852416 1.1650001 6.7327935e-39
-0.027608162 0.10788317 1.1663334 6.5448163e-39
-0.02452784 0.10756268 1.1670001 7.8369705e-39
0.057830133 0.10737637 1.1650001 1.5306268e-38
0.062629506 0.10765386 1.1680001 1.5122231e-38
0.067335576 0.10774504 1.169 1.539845e-38
0.071989015 0.10774504 1.169 1.5120422e-38
0.077180736 0.10775182 1.1666001 1.3828237e-38
0.082810141 0.10736566 1.1674001 1.3182879e-38
0.088199548 0.10765189 1.1680001 1.3550576e-38
0.092850998 0.10765189 1.1680001 9.7676599e-39
0.097195148 0.10812896 1.169 6.6294239e-39
0.10805318 0.10774504 1.169 1.4362645e-38
0.1118357 0.10689366 1.166 1.3624021e-38
0.11811787 0.10622858 1.1650001 1.0402263e-38
0.12275538 0.10737637 1.1650001 7.3724232e-39
0.12821808 0.10812896 1.169 7.0068917e-39
0.13248375 0.10774504 1.169 7.0990943e-39
0.13550855 0.10622858 1.1650001 7.2859841e-39
-0.026896596 0.11120023 1.169 7.6436095e-39
0.054351993 0.1131153 1.1650001 1.5213343e-38
0.059090786 0.1121617 1.1670001 1.5580326e-38
0.062682137 0.11120023 1.169 1.5487051e-38
0.066172212 0.11120023 1.169 1.5486692e-38
0.071989015 0.11235195 1.169 1.5116829e-38
0.075993747 0.11158492 1.1650002 1.3553093e-38
0.10304593 0.11081973 1.1650001 8.8410569e-39
0.1062582 0.11171176 1.1663334 1.0500906e-38
0.12623352 0.11081973 1.1650001 6.5393919e-39
0.1331898 0.11081973 1.1650001 6.8156439e-39
0.032323785 0.11770646 1.1650001 1.503039e-38
0.054538611 0.11580714 1.169 1.5581761e-38
0.068498932 0.11580714 1.169 1.392295e-38
0.070825651 0.11580714 1.169 1.3554172e-38
0.01963781 0.12271751 1.169 1.5762562e-38
0.023048751 0.12114982 1.1650001 1.5764005e-38
0.027686272 0.12114981 1.1650001 1.5121507e-38
0.031975649 0.12090456 1.1663334 1.4844193e-38
0.036615822 0.12090456 1.1663334 1.4384669e-38
0.024291249 0.12502097 1.169 1.2174132e-38
0.02778133 0.12502097 1.169 1.2449278e-38
0.031271409 0.12502097 1.169 1.2261299e-38
0.035924852 0.12502097 1.169 1.1615203e-38
0.13782731 0.12918432 1.1650001 6.9942646e-39
0.02420813 0.1326277 1.1650001 6.5451933e-39
0.13782731 0.1326277 1.1650001 1.1683603e-38
0.14062726 0.13308306 1.169 1.0028065e-38
0.13705438 0.13760144 1.1650002 1.168431e-38
0.14062726 0.13768998 1.169 1.021209e-38
0.1331898 0.14295776 1.1650001 1.0125634e-38
0.12855229 0.14754891 1.1650001 4.1480887e-39
0.13225707 0.14665443 1.1670001 5.4362954e-39
0.13597383 0.14575207 1.169 6.7205518e-39
0.14166833 0.14677715 1.1680001 5.7993311e-39
0.12275538 0.15443563 1.1650001 5.2537062e-39
0.12715358 0.1538472 1.1663334 5.2526426e-39
0.13248375 0.15496589 1.169 5.8061681e-39
0.11116159 0.15902679 1.1650001 5.6282172e-39
0.1178254 0.15819071 1.169 5.353061e-39
0.12317685 0.15842107 1.169 5.44061e-39
0.12666693 0.15726934 1.169 5.6217894e-39
0.10786831 0.1627471 1.1670001 6.2674839e-39
0.11135441 0.16389883 1.1670001 6.08668e-39
0.11968677 0.16302799 1.169 5.3523534e-39
0.12278907 0.16264409 1.169 5.2558586e-39
-0.09288919 0.1670613 1.1650001 1.1047958e-38
0.10188656 0.16591351 1.1650001 5.6206978e-39
0.10670893 0.16734809 1.1670001 5.804359e-39
0.1103799 0.1676349 1.169 5.8061499e-39
0.12201349 0.1676349 1.169 4.5121979e-39
-0.092969924 0.17180078 1.166 1.0864287e-38
0.10670893 0.17194714 1.1670001 4.0555357e-39
0.1103799 0.17109008 1.169 5.8929631e-39
-0.092969924 0.1763939 1.166 1.0956481e-38
0.098408416 0.17968695 1.1650001 9.7550678e-39
0.10188656 0.17739138 1.1650001 7.085377e-39
0.10679938 0.17669842 1.1680001 8.0973667e-39
-0.088842794 0.18239646 1.1676668 1.0865709e-38
0.098408416 0.1842781 1.1650001 1.4998647e-38
0.10232911 0.18281813 1.1674001 1.3711876e-38
0.10572647 0.18260738 1.169 1.3801918e-38
-0.084773533 0.18772146 1.1650001 1.0587689e-38
0.093770899 0.18657367 1.1650001 1.5364544e-38
0.097417973 0.18804373 1.1670001 1.4905368e-38
0.10223637 0.188366 1.169 1.4721344e-38
0.10842291 0.097712696 1.1730001 5.999899e-39
0.11153582 0.096942246 1.1730001 6.2714622e-39
0.12943505 0.097712696 1.1730001 6.6351973e-39
0.13176972 0.097712696 1.1730001 5.8076016e-39
0.07340268 0.10233537 1.1730001 1.3560312e-38
0.076515585 0.10233538 1.1730001 1.4390082e-38
0.081574067 0.10349104 1.1730001 1.5767962e-38
0.086827099 0.10406888 1.1730001 1.6782109e-38
0.094414815 0.10464671 1.1730001 1.4469301e-38
0.098305956 0.10387626 1.1730001 8.9479998e-39
0.10297532 0.10387626 1.1730001 6.4554723e-39
0.1070221 0.10187311 1.1730002 8.3886925e-39
0.11192493 0.10002404 1.1730001 5.8065366e-39
0.12126365 0.10464671 1.1730001 6.9114479e-39
0.12943505 0.10233538 1.1730001 7.285624e-39
0.13176972 0.10233538 1.1730001 7.1945073e-39
0.099084176 0.10695805 1.1730001 4.1416049e-39
0.1025862 0.10811372 1.1730001 7.3687756e-39
0.10608822 0.10811372 1.1730001 1.1973491e-38
0.12476568 0.10695805 1.1730001 7.2852708e-39
0.12710036 0.10695805 1.1730001 7.1956018e-39
0.06873332 0.11273639 1.1730001 1.5487046e-38
0.033713091 0.12313741 1.1730001 1.4840241e-38
0.033713091 0.12544875 1.1730001 1.1985425e-38
0.022039685 0.1346941 1.1730001 7.1898158e-39
0.13760643 0.14278378 1.1730001 9.7546979e-39
0.1422758 0.14278379 1.1730001 6.6262051e-39
0.13799554 0.14779168 1.1730001 6.0755551e-39
0.12943505 0.15202913 1.1730001 5.0686058e-39
0.13254794 0.15241437 1.1730001 5.6214111e-39
0.13643909 0.1531848 1.1730001 6.3568097e-39
0.14344314 0.15087347 1.1730001 6.4450509e-39
0.14577781 0.15087347 1.1730001 6.358595e-39
0.13760643 0.15549614 1.1730001 6.1724255e-39
0.14188668 0.1562666 1.1730001 6.1695472e-39
0.11309227 0.16243015 1.1730001 5.7204128e-39
0.11636082 0.16289242 1.1730002 5.4452609e-39
0.12476568 0.16474149 1.1730001 5.1597169e-39
0.12710038 0.16243015 1.1730001 5.3444781e-39
0.11309227 0.16820849 1.1730001 5.623911e-39
0.11659429 0.16820849 1.1730001 5.1640147e-39
0.122431 0.16820849 1.1730001 4.6969451e-39
0.12710036 0.16820849 1.1730001 4.9724544e-39
0.11231405 0.1732164 1.1730001 7.2708543e-39
0.11659429 0.17283118 1.1730001 9.1079187e-39
0.12196406 0.17260005 1.1730002 8.6430001e-39
0.12710036 0.1716755 1.1730001 8.1859849e-39
0.11192493 0.17745385 1.1730001 1.2053112e-38
0.11659429 0.17745385 1.1730001 1.4168184e-38
0.10842291 0.18207651 1.1730001 1.3984517e-38
0.11192493 0.18207651 1.1730001 1.4813182e-38
0.11659429 0.18092085 1.1730001 1.5456022e-38
0.10764468 0.18708442 1.1730001 1.4812455e-38
0.11192493 0.18554352 1.1730001 1.4812453e-38
0.099422067 0.098045908 1.177 1.8991173e-38
0.10410735 0.098045908 1.177 1.2724007e-38
0.10723087 0.096499763 1.177 7.5607185e-39
0.1287051 0.096886292 1.177 7.4638747e-39
0.07833828 0.10152473 1.177 1.6236149e-38
0.081461802 0.1011382 1.177 1.8535272e-38
0.087708846 0.10268434 1.177 1.8809335e-38
0.094736777 0.10268434 1.177 1.7800201e-38
0.098250747 0.10152473 1.177 1.6411869e-38
0.10254559 0.1011382 1.177 1.0974479e-38
0.11816321 0.10268434 1.177 6.1720821e-39
0.12050585 0.10268434 1.177 5.2544545e-39
0.12753378 0.10152473 1.177 7.4692809e-39
0.092394136 0.10500357 1.177 1.6314289e-38
0.12636246 0.10500357 1.177 7.1030362e-39
0.064282417 0.11428044 1.177 1.5764348e-38
0.066625059 0.11428044 1.177 1.5671074e-38
0.064282417 0.11659966 1.177 1.4661246e-38
0.022895724 0.12742269 1.177 8.0278806e-39
0.022114841 0.1328342 1.177 6.5451681e-39
0.1345617 0.15138794 1.177 5.9887503e-39
0.1384661 0.15216103 1.177 6.2635351e-39
0.14237051 0.1529341 1.177 6.3528553e-39
0.12636246 0.17458014 1.177 1.2233914e-38
0.12167718 0.17805898 1.177 1.4258945e-38
0.12519114 0.17805898 1.177 1.4350784e-38
0.11699189 0.18385702 1.177 1.4996124e-38
0.12167718 0.18269742 1.177 1.5271272e-38
0.12519114 0.18153781 1.177 1.5179801e-38
0.11699189 0.18617624 1.177 1.490321e-38
0.12050585 0.18617624 1.177 1.4902851e-38
0.078604504 0.097215563 1.1810001 2.0288076e-38
0.081738636 0.09760341 1.1810001 2.0655417e-38
0.085656315 0.098379113 1.1810001 2.0837999e-38
0.098584637 0.097215563 1.1810001 1.9358515e-38
0.10289409 0.096827708 1.1810001 1.4929149e-38
0.12679189 0.097215563 1.1810001 8.481244e-39
0.085656315 0.10070621 1.1810001 2.0651444e-38
0.090357527 0.10303331 1.1810001 1.8993726e-38
0.096234038 0.10070621 1.1810001 1.9637998e-38
0.12326599 0.10186976 1.1810001 5.2616333e-39
0.1256166 0.10186976 1.1810001 6.7342354e-39
0.016313488 0.12281367 1.1810001 1.5857273e-38
0.019055862 0.12708002 1.1810001 9.3185984e-39
0.01807644 0.1315403 1.1810001 5.159005e-39
0.0233653 0.13095853 1.1810001 4.9832752e-39
0.12796719 0.1786641 1.1810001 1.4627001e-38
