# .PCD v0.7 - Point Cloud Data file format
VERSION 0.7
FIELDS x y z rgb
SIZE 4 4 4 4
TYPE F F F F
COUNT 1 1 1 1
WIDTH 1051
HEIGHT 1
VIEWPOINT 0 0 0 1 0 0 0
POINTS 1051
DATA ascii
0.11012204 0.097577386 1.245 5.3419179e-39
0.13490191 0.096350782 1.245 8.8363373e-39
0.13699265 0.098301068 1.2490001 9.8497549e-39
0.14155021 0.096660338 1.2490001 1.1503874e-38
0.14527914 0.097890884 1.2490001 9.6628736e-39
0.1079899 0.10281307 1.2490001 5.0671359e-39
0.11130451 0.10322326 1.2490001 4.9749403e-39
0.11631701 0.10371041 1.245 5.3422808e-39
0.12300757 0.10272912 1.245 6.1691604e-39
0.12843046 0.10218601 1.2463334 6.7201832e-39
0.13202074 0.10322325 1.2490001 7.0882483e-39
0.13533534 0.10158252 1.2490001 8.9288987e-39
0.10716125 0.10814544 1.2490001 5.0664324e-39
0.11171883 0.10773526 1.2490001 5.066787e-39
0.11650386 0.10756471 1.247 5.342648e-39
0.12217224 0.1072845 1.2466 5.4344807e-39
0.12704884 0.10814544 1.2490001 5.1582637e-39
0.13119209 0.10732508 1.2490001 5.1582707e-39
0.10716125 0.11224725 1.2490001 5.065715e-39
0.11171882 0.11265744 1.2490001 5.0664324e-39
0.11659829 0.11256625 1.248 5.2508167e-39
0.12166262 0.11265743 1.2490001 5.4359198e-39
0.12663451 0.11265743 1.2490001 5.2518971e-39
0.13036343 0.11265744 1.2490001 5.067517e-39
0.11669073 0.11757962 1.2490001 5.1586239e-39
0.12166262 0.11757962 1.2490001 5.1611364e-39
0.12729679 0.11774963 1.2482001 5.1611448e-39
0.13160641 0.11757962 1.2490001 5.1658125e-39
0.10674693 0.12250181 1.2490001 1.1131859e-38
0.1129618 0.12373235 1.2490001 8.4592997e-39
0.11669073 0.12373235 1.2490001 6.9899248e-39
0.12207694 0.12291199 1.2490001 5.7078418e-39
0.12663451 0.12250181 1.2490001 5.2504678e-39
0.13119209 0.12209162 1.2490001 5.252623e-39
0.11171883 0.12619345 1.2490001 1.1405569e-38
0.11710505 0.12701383 1.2490001 1.0485773e-38
0.12166262 0.127424 1.2490001 8.1866701e-39
0.12663451 0.127424 1.2490001 5.5194974e-39
0.13160641 0.127424 1.2490001 5.4273242e-39
0.092198864 0.059983134 1.2540001 6.9045745e-39
0.096774682 0.058335841 1.2540001 7.4566693e-39
0.10093451 0.05751219 1.2540001 6.6280058e-39
0.12714148 0.058747664 1.2540001 9.5793183e-39
0.13213325 0.058747664 1.2540001 9.1215758e-39
0.1358771 0.058747664 1.2540001 8.8460637e-39
0.088455014 0.062454078 1.2540001 5.7085648e-39
0.1333812 0.062454078 1.2540001 9.9574195e-39
0.13754104 0.063277729 1.2540001 1.0140374e-38
0.14211684 0.063689552 1.2540001 8.7581715e-39
0.088455014 0.06863144 1.2540001 5.3408613e-39
0.138373 0.067395963 1.2540001 8.0206246e-39
0.14211684 0.067395963 1.2540001 7.0983138e-39
0.14710864 0.067395963 1.2540001 5.6214181e-39
0.15210044 0.069866911 1.2540001 5.6217698e-39
0.1558443 0.069866911 1.2540001 5.9948473e-39
0.088455014 0.073573321 1.2540001 5.2500992e-39
0.15210044 0.073573329 1.2540001 5.808668e-39
0.1558443 0.073573321 1.2540001 5.9058789e-39
0.092198864 0.077279739 1.2540001 5.4348478e-39
0.097190663 0.079750687 1.2540001 5.1607664e-39
0.15251644 0.078103393 1.2540001 5.9901852e-39
0.15709224 0.078515217 1.2540001 5.9015671e-39
0.092198864 0.082221627 1.2540001 5.3440815e-39
0.097190663 0.084692575 1.2540001 5.0692925e-39
0.15667626 0.083045274 1.2540001 5.8054254e-39
0.16208404 0.082221627 1.2540001 5.9880146e-39
0.097190663 0.087163515 1.2540001 4.9760221e-39
0.10218246 0.087163515 1.2540001 4.8841922e-39
0.1433648 0.089634463 1.2540001 6.812753e-39
0.1483566 0.089634463 1.2540001 5.1568428e-39
0.15210044 0.089634463 1.2540001 4.9796304e-39
0.15709224 0.087163515 1.2540001 5.4427497e-39
0.1608361 0.087163515 1.2540001 6.0859527e-39
0.10343041 0.092105404 1.2540001 5.6174314e-39
0.10592631 0.093340874 1.2540001 5.6181447e-39
0.14170086 0.09292905 1.2540001 1.0858526e-38
0.1483566 0.093340874 1.2540001 6.9027948e-39
0.15168446 0.093752705 1.2540001 5.530642e-39
0.10592631 0.098282769 1.2540001 5.5248686e-39
0.14211684 0.099518239 1.2540001 1.0585156e-38
0.1483566 0.098282769 1.2540001 6.3514231e-39
0.1508525 0.097047292 1.2540001 4.8852852e-39
0.10592631 0.10322465 1.2540001 5.158614e-39
0.13754104 0.10363647 1.2540001 8.7455864e-39
0.14211684 0.10322465 1.2540001 8.3771654e-39
0.1458607 0.10198918 1.2540001 6.8127432e-39
0.10343041 0.10940202 1.2540001 5.0660751e-39
0.10592631 0.10693107 1.2540001 5.2508181e-39
0.1333812 0.10940202 1.2540001 4.7905728e-39
0.13670906 0.10775472 1.2540001 5.2522586e-39
0.10592631 0.1143439 1.2540001 5.5241722e-39
0.1333812 0.11310843 1.2540001 4.979629e-39
0.10259845 0.11846215 1.2540001 9.1057369e-39
0.10717426 0.11805032 1.2540001 6.9935331e-39
0.11216606 0.11805032 1.2540001 5.6160049e-39
0.1333812 0.11681484 1.2540001 5.0764896e-39
0.1358771 0.11928579 1.2540001 5.2662548e-39
0.098438613 0.12175673 1.2540001 1.1224046e-38
0.10093451 0.12175673 1.2540001 1.1224764e-38
0.10842221 0.12175673 1.2540001 1.0120599e-38
0.11175008 0.12258038 1.2540001 8.4618178e-39
0.11715786 0.12175673 1.2540001 4.8805964e-39
0.12090171 0.12175673 1.2540001 5.0671457e-39
0.1333812 0.12422768 1.2540001 5.0664366e-39
0.11590991 0.12916957 1.2540001 1.1958018e-38
0.11341401 0.13411146 1.2540001 1.1407012e-38
0.11715786 0.13287599 1.2540001 1.1499914e-38
0.12214966 0.13287599 1.2540001 1.1315164e-38
0.12714148 0.13287599 1.2540001 9.9311802e-39
0.13213325 0.13287599 1.2540001 1.030859e-38
0.11840581 0.1365824 1.2540001 1.1499195e-38
0.12090171 0.1365824 1.2540001 1.1866895e-38
0.14393644 0.052779913 1.2590001 8.5659175e-39
0.12639548 0.057741504 1.2590001 1.1142313e-38
0.13391304 0.055260707 1.2590001 8.0159723e-39
0.13808946 0.056087639 1.2590001 7.8304965e-39
0.14268351 0.056501105 1.2590001 9.0250824e-39
0.14644229 0.057741504 1.2590001 1.0958999e-38
0.087554775 0.0614627 1.2590001 5.8007577e-39
0.13892473 0.060222302 1.2590001 9.3985144e-39
0.14268351 0.060222302 1.2590001 9.3978011e-39
0.14644229 0.062703095 1.2590001 7.2812715e-39
0.088807702 0.0651839 1.2590001 5.5241778e-39
0.14644229 0.0651839 1.2590001 6.0845402e-39
0.15312457 0.066837758 1.2590001 4.8845761e-39
0.15646569 0.06766469 1.2590001 5.5313678e-39
0.16398326 0.06766469 1.2590001 5.8101127e-39
0.086301848 0.07138589 1.2590001 5.4330556e-39
0.15897155 0.07138589 1.2590001 6.1824644e-39
0.16273034 0.07138589 1.2590001 5.9058873e-39
0.088807702 0.07758788 1.2590001 5.5256057e-39
0.15897155 0.075107083 1.2590001 5.9995024e-39
0.16273034 0.076347478 1.2590001 5.5345796e-39
0.092566475 0.080068678 1.2590001 5.4352023e-39
0.16273034 0.080068678 1.2590001 5.6203139e-39
0.092566475 0.08627066 1.2590001 5.15897e-39
0.15897155 0.085030265 1.2590001 5.8994119e-39
0.1614774 0.085030265 1.2590001 6.1752729e-39
0.10384281 0.094953455 1.2590001 5.8925693e-39
0.10258989 0.098674648 1.2590001 5.9840447e-39
0.15312457 0.099088117 1.2590001 5.0714701e-39
0.15646569 0.099915043 1.2590001 5.4391736e-39
0.10300753 0.10322277 1.2590001 5.8007437e-39
0.14268351 0.10363623 1.2590001 8.6508768e-39
0.14769521 0.10363623 1.2590001 5.7978948e-39
0.15270692 0.10239584 1.2590001 5.1582875e-39
0.10258989 0.10859783 1.2590001 5.0657122e-39
0.13892473 0.10983823 1.2590001 4.6126415e-39
0.14226589 0.10818437 1.2590001 5.4384407e-39
0.14644229 0.10735743 1.2590001 5.7993311e-39
0.10384281 0.11355942 1.2590001 4.9720816e-39
0.13725418 0.11314596 1.2590001 4.8013348e-39
0.13767181 0.11852102 1.2590001 5.2651744e-39
0.13641889 0.12348261 1.2590001 5.4409449e-39
0.117625 0.13836738 1.2590001 1.1315531e-38
0.12263671 0.13836738 1.2590001 1.186654e-38
0.12639548 0.137127 1.2590001 1.2233885e-38
0.089089856 0.057924956 1.263 6.2620847e-39
0.092860579 0.056680616 1.263 6.6294309e-39
0.097888201 0.055436276 1.263 6.8134691e-39
0.12931088 0.055436276 1.263 1.1325269e-38
0.13182467 0.055436276 1.263 9.6711622e-39
0.086576045 0.060413633 1.263 5.7096382e-39
0.14858343 0.061243191 1.263 9.2123225e-39
0.15319209 0.061657969 1.263 8.4758266e-39
0.15696281 0.062902309 1.263 5.8093686e-39
0.16450424 0.062902309 1.263 5.5270715e-39
0.086576045 0.066635333 1.263 5.432701e-39
0.14942136 0.065390997 1.263 5.7132536e-39
0.15193518 0.065390997 1.263 5.1611588e-39
0.15821972 0.066635333 1.263 5.1640245e-39
0.16324735 0.066635333 1.263 5.808675e-39
0.16701806 0.066635333 1.263 5.4373926e-39
0.16701806 0.071612686 1.263 5.7143326e-39
0.086576045 0.076590046 1.263 5.4334115e-39
0.16701806 0.076590046 1.263 4.9778437e-39
0.08783295 0.081567407 1.263 5.5252428e-39
0.087832958 0.086544752 1.263 5.5252344e-39
0.092860579 0.090277776 1.263 5.5248728e-39
0.10165893 0.091522112 1.263 5.4323283e-39
0.099145107 0.097743809 1.263 6.627605e-39
0.10165893 0.095255129 1.263 6.1669968e-39
0.099145107 0.10023249 1.263 6.6279694e-39
0.14942136 0.10520984 1.263 5.5227527e-39
0.10165893 0.11267588 1.263 3.5023535e-39
0.14313683 0.11143154 1.263 5.0754077e-39
0.14690755 0.1101872 1.263 5.7128822e-39
0.10165893 0.11516456 1.263 5.2429148e-39
0.13936612 0.11516456 1.263 4.8967548e-39
0.13936612 0.12263059 1.263 5.7196827e-39
0.14439374 0.12014192 1.263 5.0753993e-39
0.13810921 0.12636361 1.263 6.0787655e-39
0.13769025 0.13092619 1.263 1.030357e-38
0.10920037 0.13507397 1.263 1.1315526e-38
0.11171418 0.13507397 1.263 1.140701e-38
0.12931088 0.13756266 1.263 1.2051656e-38
0.13308159 0.13756266 1.263 1.2425463e-38
0.11925562 0.14254002 1.263 1.1225135e-38
0.12428324 0.14005134 1.263 1.2050571e-38
0.12679705 0.14005134 1.263 1.2418633e-38
0.11925562 0.1450287 1.263 1.1961251e-38
0.16767927 -0.026795762 1.268 1.7052564e-38
0.17020303 -0.026795762 1.268 1.7239837e-38
0.16767927 -0.024297232 1.268 1.8067067e-38
0.1651555 -0.018050905 1.268 1.816145e-38
0.15758421 -0.01180458 1.268 1.4370267e-38
0.1651555 -0.014303111 1.268 1.7885952e-38
0.15169543 -0.0076403632 1.268 1.3902773e-38
0.13991785 -0.0030597236 1.268 1.3811653e-38
0.14244162 -0.0030597236 1.268 1.3811652e-38
0.14748915 -0.0030597236 1.268 1.3719446e-38
0.1512748 -0.0030597239 1.268 1.3627992e-38
0.14244162 0.00068807183 1.268 1.3720536e-38
0.14748915 0.001937337 1.268 1.3350316e-38
0.1512748 0.001937337 1.268 1.3354659e-38
0.097013839 0.048160151 1.268 6.4486592e-39
0.089442544 0.05315721 1.268 5.7125179e-39
0.093228191 0.051907942 1.268 6.0777131e-39
0.12225149 0.05065868 1.268 9.3909866e-39
0.15001291 0.05315721 1.268 9.3880901e-39
0.15506044 0.05315721 1.268 9.8436607e-39
0.1651555 0.05315721 1.268 8.1171419e-39
0.084395014 0.05565574 1.268 5.6217474e-39
0.087760031 0.056488585 1.268 5.8043436e-39
0.10332325 0.05565574 1.268 5.708939e-39
0.12729903 0.05565574 1.268 1.2704948e-38
0.1512748 0.056905005 1.268 1.2060654e-38
0.15632233 0.056905005 1.268 1.224324e-38
0.16136986 0.056905009 1.268 1.0402957e-38
0.16641739 0.056905009 1.268 6.9157316e-39
0.084395014 0.061902065 1.268 5.5259658e-39
0.15758421 0.0606528 1.268 1.0593062e-38
0.16136986 0.061902065 1.268 8.3825674e-39
0.16683802 0.061485644 1.268 5.0664591e-39
0.084395014 0.066899121 1.268 5.5252526e-39
0.16136986 0.06564986 1.268 5.622846e-39
0.084395014 0.071896188 1.268 5.6167293e-39
0.16767927 0.081890315 1.268 5.709648e-39
0.088180661 0.091884434 1.268 5.8018171e-39
0.093228191 0.093133695 1.268 6.3524643e-39
0.098275721 0.091884434 1.268 5.8925778e-39
0.088601291 0.096465074 1.268 6.1695136e-39
0.093228191 0.096881494 1.268 6.7198007e-39
0.097855091 0.096465074 1.268 6.8116348e-39
0.094490074 0.10187855 1.268 6.6279736e-39
0.097855091 0.10229497 1.268 6.7198091e-39
0.15758421 0.10312781 1.268 5.4355905e-39
0.099537604 0.10687561 1.268 5.8918673e-39
0.10206137 0.10687561 1.268 5.8007507e-39
0.15169543 0.10729204 1.268 5.5256309e-39
0.094490074 0.11062341 1.268 5.7982423e-39
0.098696351 0.11145626 1.268 5.522733e-39
0.14496538 0.11312194 1.268 5.1679635e-39
0.14748915 0.11312194 1.268 5.5299315e-39
0.1512748 0.11187267 1.268 5.8040143e-39
0.093228191 0.118119 1.268 1.1408796e-38
0.098275721 0.11562047 1.268 8.189177e-39
0.10206137 0.118119 1.268 8.7348104e-39
0.13991785 0.118119 1.268 5.1729788e-39
0.14370349 0.11686973 1.268 5.1711865e-39
0.14748915 0.11686973 1.268 5.2569334e-39
0.1512748 0.11686973 1.268 5.3451913e-39
0.1559017 0.11728616 1.268 4.9771333e-39
0.089442544 0.12061753 1.268 1.094818e-38
0.093228191 0.12061753 1.268 1.1224762e-38
0.098275721 0.12061753 1.268 1.1499913e-38
0.14328288 0.12228322 1.268 5.1654426e-39
0.14748915 0.12186679 1.268 4.5168572e-39
0.1512748 0.12061753 1.268 4.7916518e-39
0.10963266 0.12811312 1.268 1.159175e-38
0.13991785 0.12811312 1.268 8.1013002e-39
0.14370349 0.1256146 1.268 6.8113111e-39
0.14748915 0.1256146 1.268 6.2567136e-39
0.10332325 0.13311018 1.268 1.1224409e-38
0.13991785 0.13311018 1.268 1.3247687e-38
0.14328288 0.1314445 1.268 1.2236423e-38
0.10332325 0.13560872 1.268 1.131768e-38
0.10795015 0.13727441 1.268 1.1225125e-38
0.11341831 0.13810724 1.268 1.1131863e-38
0.13865596 0.13560872 1.268 1.3617175e-38
0.14244162 0.13560872 1.268 1.3891977e-38
0.10458513 0.14060578 1.268 1.1872997e-38
0.10837078 0.14185503 1.268 1.1871561e-38
0.11341831 0.14185505 1.268 1.1502432e-38
0.11720396 0.14185503 1.268 1.1225494e-38
0.12351337 0.1431043 1.268 1.1682871e-38
0.12898153 0.14227146 1.268 1.2602666e-38
0.13360843 0.14185503 1.268 1.315907e-38
0.10458513 0.14560284 1.268 1.2426524e-38
0.13360843 0.14560284 1.268 1.3435648e-38
0.15301785 -0.031893115 1.2720001 1.3904207e-38
0.15681544 -0.026880292 1.2720001 1.3994611e-38
0.16187888 -0.026880292 1.2720001 1.399787e-38
0.16567649 -0.026880292 1.2720001 1.6220271e-38
0.1572374 -0.022702938 1.2720001 1.4267609e-38
0.16187888 -0.023120673 1.2720001 1.4459592e-38
0.1665204 -0.022702938 1.2720001 1.7975596e-38
0.15301785 -0.016854642 1.2720001 1.4176848e-38
0.15681544 -0.018107848 1.2720001 1.4360886e-38
0.16187888 -0.018107848 1.2720001 1.5476983e-38
0.16820821 -0.018107848 1.2720001 1.8713179e-38
0.15217395 -0.01267729 1.2720001 1.3993875e-38
0.1563935 -0.01351276 1.2720001 1.4087175e-38
0.16187888 -0.013095025 1.2720001 1.594696e-38
0.16567649 -0.011841819 1.2720001 1.7885593e-38
0.14289095 -0.006828994 1.2720001 1.3811296e-38
0.14668854 -0.0080821998 1.2720001 1.3810938e-38
0.15048613 -0.0093354061 1.2720001 1.3903133e-38
0.15681544 -0.0080821998 1.2720001 1.4276989e-38
0.16145694 -0.0084999353 1.2720001 1.5673616e-38
0.14542267 -0.0030693759 1.2720001 1.3811647e-38
0.15681544 -0.0030693759 1.2720001 1.4927396e-38
0.16061303 -0.0043225819 1.2720001 1.5948762e-38
0.1378275 0.0031966546 1.2720001 1.3811653e-38
0.14120314 0.002361184 1.2720001 1.3812013e-38
0.14542267 0.0019434486 1.2720001 1.3627982e-38
0.1563935 0.0015257131 1.2720001 1.5759668e-38
0.14711049 0.0065385378 1.2720001 1.316774e-38
0.151752 0.0069562732 1.2720001 1.4003644e-38
0.093100339 0.047476605 1.2720001 6.4461397e-39
0.12137128 0.048312075 1.2720001 8.3804402e-39
0.15301785 0.048312075 1.2720001 5.1629791e-39
0.088458836 0.052071691 1.2720001 5.6213999e-39
0.1277006 0.053324897 1.2720001 1.2057435e-38
0.13023232 0.053324897 1.2720001 1.0953978e-38
0.151752 0.052071691 1.2720001 7.7314639e-39
0.15808131 0.052071691 1.2720001 7.4519903e-39
0.16145694 0.052489426 1.2720001 6.7237874e-39
0.079597794 0.057084516 1.2720001 5.7099928e-39
0.082973436 0.057502251 1.2720001 5.6199523e-39
0.1720058 0.058337722 1.2720001 5.9937851e-39
0.17706925 0.058337722 1.2720001 6.4540444e-39
0.079597794 0.062097341 1.2720001 5.6178027e-39
0.082129523 0.062097341 1.2720001 5.5263246e-39
0.1720058 0.062097341 1.2720001 4.9753452e-39
0.17706926 0.062097341 1.2720001 5.3462801e-39
0.082129523 0.067110166 1.2720001 5.5252526e-39
0.1720058 0.067110166 1.2720001 5.3459214e-39
0.17664731 0.067527905 1.2720001 5.2566026e-39
0.082129523 0.070869781 1.2720001 5.6174496e-39
0.1720058 0.072122991 1.2720001 5.6214251e-39
0.17580339 0.072122991 1.2720001 5.438473e-39
0.084661245 0.077135816 1.2720001 5.5245309e-39
0.1720058 0.077135816 1.2720001 5.0678898e-39
0.17580339 0.077135816 1.2720001 6.9964324e-39
0.084661245 0.082148641 1.2720001 5.5252442e-39
0.079597794 0.088414669 1.2720001 6.2638756e-39
0.083817348 0.087579206 1.2720001 5.7114193e-39
0.16694236 0.085908256 1.2720001 6.7237762e-39
0.083817348 0.092592023 1.2720001 5.7121396e-39
0.15808131 0.092174292 1.2720001 5.8143993e-39
0.16145694 0.092592023 1.2720001 5.996634e-39
0.083395384 0.095933907 1.2720001 5.7121325e-39
0.087192975 0.098440319 1.2720001 6.169152e-39
0.15808131 0.095933907 1.2720001 6.0906219e-39
0.16061303 0.095933907 1.2720001 5.9977088e-39
0.0888808 0.1017822 1.2720001 5.9836874e-39
0.092256427 0.10219994 1.2720001 6.3517496e-39
0.089724705 0.10721277 1.2720001 5.1561001e-39
0.093522295 0.10721277 1.2720001 4.421063e-39
0.097319879 0.10721277 1.2720001 5.8918673e-39
0.15681544 0.10721277 1.2720001 5.5281491e-39
0.16061303 0.10595956 1.2720001 5.6199818e-39
0.089724705 0.11222558 1.2720001 8.5579455e-39
0.093100339 0.11264332 1.2720001 7.8207644e-39
0.097319879 0.11347879 1.2720001 7.6363802e-39
0.15681544 0.11222558 1.2720001 5.7136207e-39
0.16230085 0.11264332 1.2720001 5.7132508e-39
0.089724705 0.1172384 1.2720001 1.1316249e-38
0.093522295 0.1159852 1.2720001 1.1040022e-38
0.09858574 0.11849161 1.2720001 1.067196e-38
0.15808131 0.1159852 1.2720001 5.2540747e-39
0.16187888 0.1172384 1.2720001 4.3324813e-39
0.16567649 0.1172384 1.2720001 3.135736e-39
0.151752 0.12350444 1.2720001 4.4214386e-39
0.15681544 0.12225123 1.2720001 5.8047191e-39
0.16187888 0.12099802 1.2720001 5.7996927e-39
0.14289095 0.12851727 1.2720001 9.5699633e-39
0.14668854 0.12851727 1.2720001 9.4763383e-39
0.151752 0.12601085 1.2720001 6.9935527e-39
0.09858574 0.1335301 1.2720001 1.1319107e-38
0.14711049 0.13269463 1.2720001 1.2603765e-38
0.099007696 0.13687198 1.2720001 1.159641e-38
0.1036492 0.13854291 1.2720001 1.1596415e-38
0.1378275 0.13854291 1.2720001 1.3159073e-38
0.14162508 0.13854291 1.2720001 1.3248764e-38
0.14626658 0.13687198 1.2720001 1.3616114e-38
0.099851608 0.14230253 1.2720001 1.2151015e-38
0.10322724 0.14272027 1.2720001 1.2058103e-38
0.1378275 0.14230253 1.2720001 1.3434222e-38
0.14162508 0.14230253 1.2720001 1.3617541e-38
0.15361935 -0.034534745 1.2770001 1.390421e-38
0.15785548 -0.032857239 1.2770002 1.3812012e-38
0.16251522 -0.032018483 1.2770001 1.3445387e-38
0.16632773 -0.032018483 1.2770001 1.4187288e-38
0.15361935 -0.028244086 1.2770001 1.3904212e-38
0.15743187 -0.029502217 1.2770001 1.3812013e-38
0.16251522 -0.029502217 1.2770001 1.3537956e-38
0.16759858 -0.029502217 1.2770001 1.5576706e-38
0.15277213 -0.022792181 1.2770002 1.4086452e-38
0.15616103 -0.024469689 1.2770001 1.427084e-38
0.15192491 -0.018598408 1.2770002 1.4177211e-38
0.14768875 -0.012727122 1.2770002 1.3902417e-38
0.15107767 -0.014404631 1.2770001 1.4086082e-38
0.16886941 -0.014404631 1.2770001 1.8160377e-38
0.14345263 -0.0093721021 1.2770001 1.3902774e-38
0.16378605 -0.0068558375 1.2770001 1.6411185e-38
0.16632773 -0.0093721021 1.2770001 1.7610081e-38
0.16251522 -0.0030814412 1.2770001 1.6133516e-38
0.1587027 0.00320922 1.2770001 1.6773111e-38
0.13836928 0.0057254843 1.2770001 1.3627626e-38
0.14260541 0.00656424 1.2770002 1.3535796e-38
0.14599431 0.0082417494 1.2770001 1.2891158e-38
0.15743187 0.0057254843 1.2770001 1.6497603e-38
0.14853598 0.010758013 1.2770001 1.1978208e-38
0.15107767 0.010758013 1.2770001 1.4190908e-38
0.090077393 0.04850198 1.2770001 5.8951239e-39
0.073556483 0.052276373 1.2770001 5.9844231e-39
0.087535709 0.051018246 1.2770001 5.5302832e-39
0.12566088 0.051018246 1.2770001 9.0222083e-39
0.1358276 0.053534508 1.2770001 7.6490073e-39
0.073980093 0.05688953 1.2770002 5.1571791e-39
0.077368997 0.057308905 1.2770001 5.8018269e-39
0.17268193 0.056050774 1.2770001 8.4855474e-39
0.17649445 0.056050774 1.2770001 9.3117124e-39
0.074827321 0.061083302 1.2770001 5.8958148e-39
0.077368997 0.062341433 1.2770001 5.7103543e-39
0.1815778 0.062341433 1.2770001 5.6217796e-39
0.078639835 0.066115826 1.2770001 5.8014765e-39
0.17903613 0.066115826 1.2770001 5.4409939e-39
0.1815778 0.067373961 1.2770001 5.4395548e-39
0.17903613 0.072406486 1.2770001 5.2540845e-39
0.1815778 0.072406486 1.2770001 5.0693345e-39
0.082452357 0.076180883 1.2770001 5.7996843e-39
0.17903613 0.077439018 1.2770001 7.6389179e-39
0.1815778 0.076180883 1.2770001 6.258517e-39
0.079910681 0.08247155 1.2770001 5.7082019e-39
0.082452357 0.08247155 1.2770001 5.4334101e-39
0.17268193 0.081213415 1.2770001 5.618537e-39
0.17649445 0.081213415 1.2770001 8.7420145e-39
0.079910681 0.086245939 1.2770001 5.9858566e-39
0.082452357 0.086245939 1.2770001 5.6199453e-39
0.079910681 0.092536598 1.2770001 5.8951015e-39
0.082452357 0.091278471 1.2770001 5.8036219e-39
0.079910681 0.096311003 1.2770001 5.4341247e-39
0.083723195 0.098827265 1.2770001 5.7096158e-39
0.1587027 0.098827265 1.2770001 5.6289361e-39
0.16293883 0.097988516 1.2770002 5.8097344e-39
0.084994033 0.10134353 1.2770001 5.8918435e-39
0.087535709 0.1038598 1.2770001 5.3397599e-39
0.16209161 0.10302105 1.2770002 5.6199762e-39
0.16632773 0.1038598 1.2770001 5.710018e-39
0.16293883 0.10805357 1.2770002 5.7125347e-39
0.16632773 0.10637606 1.2770001 5.8947666e-39
0.16124438 0.11140858 1.2770001 5.7139739e-39
0.16251522 0.12398991 1.2770001 9.758295e-39
0.16759858 0.12147365 1.2770001 5.7957354e-39
0.15234852 0.12902243 1.2770001 1.1041126e-38
0.15616103 0.12650618 1.2770001 8.744527e-39
0.15234852 0.13279684 1.2770001 1.1870866e-38
0.092619069 0.13657123 1.2770001 1.1872637e-38
0.096431583 0.13782936 1.2770001 1.1872994e-38
0.14853598 0.1390875 1.2770001 1.3616828e-38
0.15192491 0.13740999 1.2770002 1.278851e-38
0.15107767 0.14160375 1.2770001 1.4077426e-38
0.15422083 -0.037196081 1.2820001 1.3812739e-38
0.15847355 -0.03803812 1.2820001 1.3720541e-38
0.16187572 -0.037196081 1.2820001 1.3536145e-38
0.15677246 -0.034669966 1.2820001 1.3904568e-38
0.16315153 -0.034669966 1.2820001 1.3443229e-38
0.16868007 -0.033827927 1.2820001 1.4283102e-38
0.17208225 -0.032143846 1.2820001 1.6595192e-38
0.17208225 -0.029617731 1.2820001 1.6780658e-38
0.1516692 -0.024565497 1.2820001 1.399533e-38
0.14826703 -0.017829187 1.2820001 1.3994252e-38
0.14656594 -0.014461031 1.2820001 1.3994252e-38
0.16442735 -0.0018304478 1.2820001 1.6042042e-38
0.16187572 0.00069566886 1.2820001 1.6040598e-38
0.13891105 0.0082740188 1.2820001 1.3443241e-38
0.14146268 0.0082740188 1.2820001 1.3443959e-38
0.15804827 0.0082740188 1.2820001 1.622354e-38
0.14401431 0.010800135 1.2820001 1.1603655e-38
0.14741649 0.012484213 1.2820001 9.5854462e-39
0.15337029 0.012484213 1.2820001 1.502572e-38
0.14911757 0.015852369 1.2820001 9.4997456e-39
0.1516692 0.017115427 1.2820001 1.4660167e-38
0.0751203 0.048691887 1.2820001 7.4559532e-39
0.085326821 0.048691887 1.2820001 5.8047177e-39
0.090430081 0.046165768 1.2820001 6.4436272e-39
0.06746541 0.053744119 1.2820001 1.0031997e-38
0.07001704 0.053744119 1.2820001 7.2657928e-39
0.07767193 0.052481063 1.2820001 6.3535643e-39
0.081499375 0.052481063 1.2820001 5.9869398e-39
0.085326821 0.052481063 1.2820001 5.7135899e-39
0.12870453 0.051218003 1.2820001 8.7452613e-39
0.13253197 0.052481063 1.2820001 9.1147669e-39
0.13891105 0.053744119 1.2820001 6.822492e-39
0.06746541 0.057533294 1.2820001 1.040292e-38
0.07001704 0.056270234 1.2820001 7.1750363e-39
0.18228877 0.057533294 1.2820001 5.9884069e-39
0.0751203 0.063848585 1.2820001 5.8036247e-39
0.08022356 0.068900816 1.2820001 5.7092851e-39
0.1848404 0.071426935 1.2820001 5.0689744e-39
0.081074104 0.078163251 1.2820001 5.6156546e-39
0.18228877 0.079005286 1.2820001 8.5551135e-39
0.17335805 0.084057517 1.2820001 7.6417794e-39
0.17846131 0.082794458 1.2820001 9.5710367e-39
0.18228877 0.081531405 1.2820001 9.936585e-39
0.07767193 0.089109756 1.2820001 6.8113041e-39
0.16825479 0.089109756 1.2820001 7.0936321e-39
0.17335805 0.086583637 1.2820001 8.654111e-39
0.07767193 0.092898928 1.2820001 6.1691716e-39
0.16442735 0.091635868 1.2820001 6.0873919e-39
0.16782951 0.09247791 1.2820001 6.8188472e-39
0.16697899 0.097951159 1.2820001 5.8050681e-39
0.081499375 0.10174034 1.2820001 6.0740935e-39
0.085326821 0.10426645 1.2820001 5.8922008e-39
0.16442735 0.10174034 1.2820001 5.6196146e-39
0.16697899 0.10174034 1.2820001 5.5259841e-39
0.087878451 0.10805563 1.2820001 7.3579912e-39
0.087878451 0.11310786 1.2820001 1.0303536e-38
0.087878451 0.1181601 1.2820001 1.1132574e-38
0.095533341 0.12447539 1.2820001 1.1040021e-38
0.16697899 0.12447539 1.2820001 1.1130079e-38
0.091705889 0.12826456 1.2820001 1.0858143e-38
0.15847355 0.12868558 1.2820001 1.242511e-38
0.16187572 0.12826456 1.2820001 1.3345249e-38
0.092981711 0.13457985 1.2820001 1.1597131e-38
0.095533341 0.13457985 1.2820001 1.1504935e-38
0.15422083 0.13963208 1.2820001 1.3616818e-38
0.15738389 -0.047485027 1.2870001 1.3456228e-38
0.15866467 -0.042413089 1.2870001 1.3539747e-38
0.16250706 -0.043681074 1.2870001 1.3447924e-38
0.15738389 -0.03987712 1.2870001 1.3721981e-38
0.16250706 -0.03987712 1.2870001 1.3444674e-38
0.16634943 -0.038609136 1.2870001 1.2982983e-38
0.17019179 -0.037341151 1.2870001 1.4002541e-38
0.17275338 -0.034805182 1.2870001 1.6684138e-38
0.17019179 -0.011981462 1.2870001 1.8160374e-38
0.16763021 -0.0069095246 1.2870001 1.6781045e-38
0.16763021 -0.004373556 1.2870001 1.6227517e-38
0.16250706 0.0032343511 1.2870001 1.6314306e-38
0.16506864 0.00069838209 1.2870001 1.5949125e-38
0.16250706 0.0070383046 1.2870001 1.6038073e-38
0.13945282 0.012110243 1.2870001 1.1695499e-38
0.14286827 0.012532905 1.2870001 9.9491799e-39
0.15866467 0.012110243 1.2870001 1.5766522e-38
0.13945282 0.017182181 1.2870001 9.1248212e-39
0.1432952 0.017182181 1.2870001 7.9284318e-39
0.14799145 0.017604843 1.2870001 9.4943366e-39
0.1548223 0.017182181 1.2870001 1.6410451e-38
0.15738389 0.017182181 1.2870001 1.5768328e-38
0.14457598 0.020986134 1.2870001 9.3120991e-39
0.14841837 0.022254119 1.2870001 1.2170909e-38
0.15311459 0.021831458 1.2870001 1.5768688e-38
0.13176808 0.037469931 1.2870001 1.1331056e-38
0.077121004 0.042964529 1.2870001 7.2715675e-39
0.080536447 0.041273884 1.2870001 5.0675296e-39
0.0869404 0.043809853 1.2870001 6.0802354e-39
0.092063561 0.043809853 1.2870001 8.2896599e-39
0.06644775 0.048881792 1.2870001 1.1324179e-38
0.071143985 0.048036467 1.2870001 8.9256715e-39
0.077121004 0.047191143 1.2870001 7.271206e-39
0.08181724 0.047613807 1.2870001 6.1706192e-39
0.087367341 0.047191143 1.2870001 5.712169e-39
0.12792571 0.048881792 1.2870001 8.0113018e-39
0.13304886 0.048881792 1.2870001 8.1038688e-39
0.13689123 0.048881792 1.2870001 7.3735092e-39
0.062605374 0.052685745 1.2870001 1.3441779e-38
0.066020817 0.052263081 1.2870001 1.1324173e-38
0.070290118 0.051417761 1.2870001 8.5579525e-39
0.13432966 0.051417761 1.2870001 8.4733674e-39
0.13817203 0.051417761 1.2870001 7.5586179e-39
0.1432952 0.05395373 1.2870001 7.9248767e-39
0.062605374 0.057757683 1.2870001 1.3441403e-38
0.065166958 0.057757683 1.2870001 1.1970235e-38
0.071570911 0.059025668 1.2870001 6.8127222e-39
0.18726902 0.058180343 1.2870001 4.8827741e-39
0.066874683 0.062406957 1.2870001 1.1140502e-38
0.071570911 0.061561637 1.2870001 7.1829368e-39
0.18684208 0.064097606 1.2870001 5.6203307e-39
0.071570911 0.067901559 1.2870001 6.7219797e-39
0.076694071 0.067901559 1.2870001 5.8021954e-39
0.18684208 0.069169544 1.2870001 5.2533628e-39
0.075413287 0.071705513 1.2870001 5.801122e-39
0.081390314 0.073396161 1.2870001 5.89224e-39
0.18684208 0.072973497 1.2870001 4.7913071e-39
0.077974863 0.078045435 1.2870001 5.7982521e-39
0.18641517 0.077622771 1.2870001 5.9808483e-39
0.076694071 0.083117373 1.2870001 6.3496183e-39
0.18171892 0.084385358 1.2870001 1.030679e-38
0.18684208 0.083117373 1.2870001 7.2722864e-39
0.19580762 0.084385358 1.2870001 5.2648199e-39
0.076267146 0.087766647 1.2870001 7.085377e-39
0.17275338 0.089457296 1.2870001 8.4700855e-39
0.17702268 0.088611975 1.2870001 9.6657294e-39
0.18171892 0.088189311 1.2870001 1.0215662e-38
0.18684208 0.088189311 1.2870001 6.6276373e-39
0.1923922 0.088611975 1.2870001 4.5200858e-39
0.19580762 0.086921327 1.2870001 5.1693914e-39
0.075413287 0.091993265 1.2870001 6.7187497e-39
0.17189953 0.093683913 1.2870001 7.366989e-39
0.17616883 0.092838585 1.2870001 8.5615651e-39
0.18171892 0.093261249 1.2870001 7.1800684e-39
0.18684208 0.093261249 1.2870001 4.9717075e-39
0.19068445 0.093261249 1.2870001 5.5259658e-39
0.077974863 0.097065203 1.2870001 5.2475811e-39
0.17147259 0.098333187 1.2870001 6.1688199e-39
0.17531496 0.098333187 1.2870001 6.7212678e-39
0.18171892 0.098333187 1.2870001 5.8961791e-39
0.18684208 0.098333187 1.2870001 5.8922302e-39
0.19196525 0.098333187 1.2870001 8.8374079e-39
0.19580762 0.097065203 1.2870001 1.0768484e-38
0.083098032 0.10467311 1.2870001 6.6258142e-39
0.17147258 0.10340513 1.2870001 5.8029213e-39
0.17659575 0.10213714 1.2870001 6.2674727e-39
0.18171892 0.10213714 1.2870001 6.6376776e-39
0.18684208 0.10340513 1.2870001 7.5499327e-39
0.19153832 0.10298246 1.2870001 9.20511e-39
0.083098032 0.10974505 1.2870001 1.1131849e-38
0.085659608 0.10847706 1.2870001 8.6476244e-39
0.16763021 0.10974505 1.2870001 5.988037e-39
0.17147258 0.10720908 1.2870001 5.8079463e-39
0.083098032 0.113549 1.2870001 1.1682147e-38
0.085659608 0.113549 1.2870001 1.1131134e-38
0.16763021 0.11228102 1.2870001 5.8047247e-39
0.083098032 0.11862094 1.2870001 1.1040374e-38
0.085659608 0.11862094 1.2870001 1.1132209e-38
0.0869404 0.12369288 1.2870001 1.104109e-38
0.090782776 0.12496086 1.2870001 1.0672314e-38
0.17147258 0.12369288 1.2870001 1.1224796e-38
0.088221192 0.12749684 1.2870001 1.104217e-38
0.16634943 0.12749684 1.2870001 1.3526405e-38
0.093344353 0.13256878 1.2870001 1.1228714e-38
0.15866467 0.13256878 1.2870001 1.4631308e-38
0.16250706 0.13256878 1.2870001 1.5273796e-38
0.16592251 0.13087814 1.2870001 1.5180876e-38
0.15866467 0.13637273 1.2870001 1.4171774e-38
0.16250706 0.13510475 1.2870001 1.4813904e-38
0.16686645 -0.042544909 1.291 1.2987656e-38
0.17072077 -0.040001061 1.291 1.3537593e-38
0.17329031 -0.037457209 1.291 1.6127715e-38
0.17072077 -0.0094748503 1.291 1.7792668e-38
0.16815123 -0.0018432981 1.291 1.595057e-38
0.16558167 0.0032444033 1.291 1.5947326e-38
0.16558167 0.0057882541 1.291 1.5946243e-38
0.16301213 0.010875955 1.291 1.5671805e-38
0.16044259 0.017235583 1.291 1.5399181e-38
0.13988625 0.022323284 1.291 9.5840029e-39
0.14245579 0.022323284 1.291 9.1266289e-39
0.14502533 0.023595208 1.291 9.9582e-39
0.15701655 0.02274726 1.2910001 1.6228582e-38
0.13988625 0.02868291 1.291 1.0413773e-38
0.14245579 0.02613906 1.291 9.9531609e-39
0.14759488 0.02613906 1.291 1.2171985e-38
0.1514492 0.02613906 1.291 1.4480484e-38
0.13474716 0.033770613 1.291 1.0599608e-38
0.13860148 0.032498688 1.291 1.1061312e-38
0.14245579 0.031226762 1.291 1.0971656e-38
0.070508577 0.038858313 1.291 1.002769e-38
0.076932438 0.038858313 1.291 6.997503e-39
0.12960806 0.038858313 1.291 1.2061409e-38
0.13474716 0.037586387 1.291 1.2253744e-38
0.13860148 0.037586387 1.291 1.3462001e-38
0.066654265 0.043946017 1.291 1.1875905e-38
0.071793348 0.042674091 1.291 9.2919218e-39
0.075647667 0.041402165 1.291 7.9165642e-39
0.08207152 0.043946017 1.291 5.6181783e-39
0.087210611 0.041402165 1.291 6.2664218e-39
0.12832329 0.042674091 1.291 1.2339044e-38
0.1334624 0.042674091 1.291 1.1328875e-38
0.13860148 0.042674091 1.291 9.8660338e-39
0.19384666 0.043946017 1.291 9.5890686e-39
0.20284006 0.043946017 1.291 1.1329962e-38
0.05252178 0.049033716 1.291 1.3074447e-38
0.056376096 0.04776179 1.291 1.3074441e-38
0.061515182 0.04776179 1.291 1.2982607e-38
0.066654265 0.046489865 1.291 1.1600045e-38
0.073078118 0.046489865 1.291 8.0062445e-39
0.12832329 0.046489865 1.291 1.0037064e-38
0.1334624 0.046489865 1.291 8.8410639e-39
0.13902974 0.047337815 1.2910001 6.177501e-39
0.14245579 0.04776179 1.291 6.1782142e-39
0.19384666 0.04776179 1.291 8.3876359e-39
0.19770098 0.04776179 1.291 7.2805709e-39
0.20326832 0.048185766 1.2910001 7.186199e-39
0.20669436 0.04776179 1.291 7.280917e-39
0.05252178 0.052849494 1.291 1.2891135e-38
0.056376096 0.052849494 1.291 1.2982246e-38
0.060230412 0.052849494 1.291 1.3349942e-38
0.14245579 0.051577568 1.291 8.0206667e-39
0.18870756 0.05412142 1.291 5.1651315e-39
0.19256189 0.052849494 1.291 7.0039938e-39
0.19770098 0.052849494 1.291 7.3691708e-39
0.20284006 0.052849494 1.291 5.8018493e-39
0.20669436 0.051577568 1.291 3.6882077e-39
0.05252178 0.056665268 1.291 1.2890057e-38
0.056376096 0.057937194 1.291 1.2981885e-38
0.060230412 0.057937194 1.291 1.3349218e-38
0.18613802 0.056665268 1.291 5.250486e-39
0.19256188 0.057937194 1.291 7.3641261e-39
0.19770098 0.057937194 1.291 9.3884531e-39
0.20155528 0.056665268 1.291 7.9172901e-39
0.057660867 0.061752971 1.291 1.2889335e-38
0.061515182 0.063024893 1.291 1.2706026e-38
0.065369494 0.064296819 1.291 1.1696921e-38
0.071793348 0.064296819 1.291 6.9974792e-39
0.18742278 0.061752971 1.291 5.2519055e-39
0.19213364 0.063448869 1.2910001 8.3800423e-39
0.19770098 0.064296819 1.291 1.1410963e-38
0.062799953 0.066840678 1.291 1.2431965e-38
0.067082524 0.067688629 1.2910001 1.0588786e-38
0.070508577 0.066840678 1.291 7.915488e-39
0.075647667 0.069384523 1.291 5.894391e-39
0.18742278 0.066840678 1.291 5.6214195e-39
0.19127712 0.068112597 1.291 6.5404891e-39
0.067082524 0.072776332 1.2910001 1.0311103e-38
0.071793348 0.0732003 1.291 6.3506762e-39
0.077360697 0.073624276 1.2910001 5.8918813e-39
0.18870756 0.074472226 1.291 4.5140013e-39
0.19213364 0.072776332 1.2910001 5.5245491e-39
0.067939036 0.078288004 1.291 1.0310387e-38
0.071793348 0.078288004 1.291 7.2690564e-39
0.075647667 0.078288004 1.291 6.0748348e-39
0.18870756 0.07955993 1.291 5.7986109e-39
0.19256188 0.078288004 1.291 5.1640175e-39
0.19770098 0.07955993 1.291 5.2637465e-39
0.066654265 0.083375707 1.291 1.06788e-38
0.071793348 0.083375707 1.291 8.5561883e-39
0.19256189 0.083375707 1.291 5.077207e-39
0.1964162 0.082103781 1.291 5.172627e-39
0.066654265 0.088463411 1.291 9.6661064e-39
0.071793348 0.088463411 1.291 8.6487385e-39
0.19127712 0.087191485 1.291 4.429688e-39
0.1964162 0.089735329 1.291 5.0693051e-39
0.073078118 0.092279181 1.291 6.8113069e-39
0.075647667 0.094823033 1.291 4.6940598e-39
0.17842939 0.094823033 1.291 8.1009513e-39
0.19384666 0.093551107 1.291 7.3648324e-39
0.1964162 0.093551107 1.291 8.1920707e-39
0.078217208 0.099910736 1.291 4.9720746e-39
0.08078675 0.099910736 1.291 5.2493747e-39
0.17842939 0.09863881 1.291 6.9982078e-39
0.19770098 0.099910736 1.291 1.0858876e-38
0.078217208 0.10245459 1.291 6.7144393e-39
0.08078675 0.10499844 1.291 8.0926822e-39
0.17714462 0.10499844 1.291 5.903002e-39
0.1822837 0.10499844 1.291 6.3621711e-39
0.19384666 0.10499844 1.291 9.8476025e-39
0.1964162 0.10245459 1.291 9.9401471e-39
0.078217208 0.10754228 1.291 1.1037149e-38
0.08207152 0.10754228 1.291 9.1082396e-39
0.17714462 0.10754228 1.291 5.9058705e-39
0.18099894 0.10754228 1.291 6.179219e-39
0.078217208 0.11135806 1.291 1.1315882e-38
0.08078675 0.11135806 1.291 1.1500629e-38
0.17200555 0.11135806 1.291 5.8079463e-39
0.17714463 0.11135806 1.291 5.9951976e-39
0.078217208 0.11644576 1.291 1.1407719e-38
0.08078675 0.11644576 1.291 1.1407357e-38
0.16815123 0.11517384 1.291 5.6199705e-39
0.17157727 0.1160218 1.2910001 4.8841936e-39
0.17585985 0.11517384 1.291 4.8849208e-39
0.078217208 0.12153347 1.291 1.1501708e-38
0.081643268 0.12195744 1.2910001 1.1226197e-38
0.17200553 0.12026154 1.291 5.525956e-39
0.08207152 0.12534924 1.291 1.1502781e-38
0.08592584 0.12789309 1.291 1.1319112e-38
0.17243379 0.12704514 1.2910001 1.444693e-38
0.087210611 0.13170886 1.291 1.150422e-38
0.091064923 0.13298079 1.291 1.1412744e-38
0.16815123 0.13298079 1.291 1.5273427e-38
0.17200555 0.13170886 1.291 1.4998291e-38
0.17072077 0.13552465 1.291 1.4813534e-38
0.17138195 -0.042709686 1.296 1.3170227e-38
0.17138195 -0.006957843 1.296 1.6872875e-38
0.17138195 -0.0044041402 1.296 1.6227873e-38
0.16880246 0.00070326583 1.296 1.5766536e-38
0.16622296 0.0083643747 1.296 1.5670733e-38
0.16364346 0.01347178 1.296 1.5488136e-38
0.16622296 0.010918078 1.296 1.5579257e-38
0.13784851 0.017302334 1.296 9.3092139e-39
0.16364346 0.016025484 1.296 1.5397382e-38
0.16106397 0.02113289 1.296 1.5767599e-38
0.13784851 0.028793998 1.296 1.0506674e-38
0.14171776 0.027517147 1.296 1.0229388e-38
0.14644682 0.027942766 1.296 1.1249676e-38
0.15203574 0.028793998 1.296 1.4573765e-38
0.15719473 0.026240295 1.296 1.6230397e-38
0.1430075 0.033901405 1.296 1.3466313e-38
0.14687675 0.031347703 1.296 1.3465614e-38
0.06691242 0.039008811 1.296 1.2155716e-38
0.073361158 0.039008811 1.296 8.1874016e-39
0.082389385 0.039008811 1.296 4.6126738e-39
0.087548375 0.039008811 1.296 6.8203102e-39
0.091417618 0.039008811 1.296 1.0593456e-38
0.1430075 0.03773196 1.296 1.6509475e-38
0.1971769 0.039008811 1.296 1.5393055e-38
0.20233589 0.039008811 1.296 1.5297621e-38
0.063043177 0.044116218 1.296 1.27993e-38
0.06691242 0.041562513 1.296 1.1969174e-38
0.083679132 0.041562513 1.296 3.8743927e-39
0.092707366 0.041562513 1.296 1.1145531e-38
0.096576609 0.041562513 1.296 1.206424e-38
0.1430075 0.042839363 1.296 1.098139e-38
0.19459741 0.041562513 1.296 1.355345e-38
0.1971769 0.041562513 1.296 1.3458013e-38
0.19201791 0.049223624 1.296 8.1107001e-39
0.21136412 0.047946773 1.296 6.9132065e-39
0.20749488 0.054331027 1.296 5.7110956e-39
0.20362565 0.058161583 1.296 8.1910001e-39
0.20749488 0.058161583 1.296 6.8149096e-39
0.19459741 0.061992139 1.296 1.076812e-38
0.19846666 0.061992139 1.296 1.1594639e-38
0.20319574 0.062843375 1.296 8.9253239e-39
0.20749488 0.063268989 1.296 6.3539371e-39
0.065622672 0.069653243 1.296 1.1419262e-38
0.073361158 0.069653243 1.296 5.8036275e-39
0.19459741 0.068376392 1.296 8.5630084e-39
0.19846664 0.068376392 1.296 8.4704344e-39
0.20749488 0.068376392 1.296 5.6156658e-39
0.065622672 0.074760653 1.296 1.1141578e-38
0.19459741 0.074760653 1.296 5.8022038e-39
0.19889657 0.073058188 1.296 5.8039905e-39
0.065622672 0.078591205 1.296 1.1141926e-38
0.19846666 0.077314354 1.296 5.5385341e-39
0.068202168 0.09263657 1.296 7.1800922e-39
0.070781663 0.09263657 1.296 6.9946247e-39
0.068202168 0.095190279 1.296 5.432708e-39
0.072501332 0.096041515 1.296 3.7753531e-39
0.075940654 0.097743981 1.296 4.6022159e-39
0.077230401 0.10540508 1.296 1.0117012e-38
0.18427943 0.10795879 1.296 6.4514983e-39
0.18814868 0.10795879 1.296 6.9989267e-39
0.19201791 0.10795879 1.296 7.5502942e-39
0.1971769 0.10540508 1.296 8.7412676e-39
0.075940654 0.11178935 1.296 1.1224046e-38
0.18298969 0.11178935 1.296 5.8054226e-39
0.18814868 0.1105125 1.296 5.9851475e-39
0.075940654 0.11689675 1.296 1.1408796e-38
0.17396145 0.1181736 1.296 5.6170727e-39
0.17826061 0.11732237 1.296 6.5365192e-39
0.075940654 0.12200416 1.296 1.1594982e-38
0.1774008 0.12157854 1.296 1.1319497e-38
0.078520149 0.12711157 1.296 1.1872277e-38
0.082389385 0.12838842 1.296 1.1687528e-38
0.082389385 0.13221897 1.296 1.196483e-38
0.17654094 0.13349582 1.296 1.4720996e-38
0.17463259 -0.017238908 1.3010001 1.8068539e-38
0.17463259 -0.0082664639 1.3010001 1.6963632e-38
0.17204314 -0.0018575762 1.3010001 1.5951647e-38
0.16945371 0.0032695343 1.3010001 1.5765097e-38
0.17204314 0.00070597907 1.3010001 1.5767616e-38
0.16945371 0.0058330894 1.3010001 1.5764016e-38
0.16686426 0.013523756 1.3010001 1.5488499e-38
0.16427481 0.018650865 1.3010001 1.5491014e-38
0.16168536 0.023777977 1.3010001 1.6044549e-38
0.13838035 0.026341531 1.3010001 1.0597782e-38
0.15650648 0.028905086 1.3010001 1.5589716e-38
0.16168536 0.026341531 1.3010001 1.6506255e-38
0.091770306 0.034032196 1.3010001 8.1081708e-39
0.14744341 0.034032196 1.3010001 1.6414419e-38
0.15262231 0.03275042 1.3010001 1.7336385e-38
0.084001966 0.036595751 1.3010001 6.5469673e-39
0.08788614 0.036595751 1.3010001 7.6486317e-39
0.093496606 0.037450269 1.3010001 1.0681707e-38
0.096949205 0.039159309 1.3010001 1.2796785e-38
0.14744341 0.03787753 1.3010001 1.8349795e-38
0.15132758 0.036595751 1.3010001 1.9638382e-38
0.061560094 0.042577382 1.3010001 1.2983687e-38
0.14744341 0.041722864 1.3010001 1.5406751e-38
0.2082954 0.044286419 1.3010001 1.2800751e-38
0.21217957 0.044286419 1.3010001 1.1969189e-38
0.21606374 0.044286419 1.3010001 1.0035612e-38
0.14744341 0.051977083 1.3010001 8.1099742e-39
0.21088485 0.053258859 1.3010001 4.0602091e-39
0.20570596 0.059667751 1.3010001 7.8215071e-39
0.21088485 0.058385972 1.3010001 6.4529458e-39
0.20570596 0.064794853 1.3010001 6.9017186e-39
0.20311651 0.068640187 1.3010001 7.1804481e-39
0.20570596 0.068640187 1.3010001 5.98157e-39
0.20311651 0.072485521 1.3010001 5.4341402e-39
0.20700067 0.072485521 1.3010001 5.5256239e-39
0.19793762 0.07504908 1.3010001 5.9012112e-39
0.20311651 0.07504908 1.3010001 5.6203265e-39
0.20570596 0.07504908 1.3010001 5.8029255e-39
0.063286394 0.081457965 1.3010001 1.16029e-38
0.063286394 0.086585075 1.3010001 1.1693661e-38
0.063286394 0.090430409 1.3010001 1.1691871e-38
0.065875843 0.09299396 1.3010001 9.2047821e-39
0.065875843 0.095557518 1.3010001 8.1953091e-39
0.071054734 0.098121077 1.3010001 5.1532527e-39
0.20182177 0.095557518 1.3010001 9.2001144e-39
0.076233625 0.10196641 1.3010001 6.8105768e-39
0.073644184 0.1083753 1.3010001 1.1683233e-38
0.076233625 0.1083753 1.3010001 1.1407723e-38
0.19534817 0.1083753 1.3010001 7.9176348e-39
0.073644184 0.11222063 1.3010001 1.1040738e-38
0.18757983 0.11350241 1.3010001 5.0646318e-39
0.19146401 0.11222063 1.3010001 5.7078488e-39
0.072781041 0.11692049 1.3010001 1.1409879e-38
0.18326411 0.11692049 1.3010001 4.6944157e-39
0.18757983 0.11606596 1.3010001 3.6867434e-39
0.073644184 0.12247485 1.3010001 1.1779378e-38
0.17981149 0.12375662 1.3010001 1.3710095e-38
0.18240094 0.12119307 1.3010001 1.2052373e-38
0.076233625 0.12760195 1.3010001 1.1965193e-38
0.17722204 0.12760195 1.3010001 1.5087259e-38
0.17722204 0.13144729 1.3010001 1.4996856e-38
0.17530376 -0.01344505 1.3060001 1.7515728e-38
0.17790315 -0.0082982332 1.3060001 1.6687049e-38
0.17530376 -0.0031514189 1.3060001 1.6135677e-38
0.17270435 0.0032820997 1.3060001 1.5766899e-38
0.17530376 0.0007086923 1.3060001 1.5859813e-38
0.17140466 0.0071422108 1.3060001 1.5764381e-38
0.17010495 0.012289027 1.3060001 1.5579622e-38
0.16750556 0.017435841 1.3060001 1.5398461e-38
0.17010495 0.016149137 1.3060001 1.5397746e-38
0.16490616 0.022582656 1.3060001 1.576796e-38
0.15970737 0.029016174 1.3060001 1.6876848e-38
0.086924203 0.034162991 1.3060001 8.0188562e-39
0.094722398 0.032876287 1.3060001 7.4671131e-39
0.098621488 0.034162991 1.3060001 8.6591767e-39
0.10511999 0.034162991 1.3060001 8.750299e-39
0.15840766 0.032876287 1.3060001 1.7982476e-38
0.079126008 0.036736395 1.3060001 6.4497424e-39
0.081725404 0.036736395 1.3060001 6.4529836e-39
0.099054724 0.037594199 1.3060001 1.104869e-38
0.10511999 0.036736395 1.3060001 9.8516074e-39
0.11031879 0.038023099 1.3060001 6.9132359e-39
0.1536421 0.038451999 1.3060001 1.8810432e-38
0.15710796 0.038023099 1.3060001 1.8810792e-38
0.14801008 0.04445662 1.3060001 8.8641376e-39
0.15320887 0.043169916 1.3060001 1.3933782e-38
0.15710796 0.043169916 1.3060001 1.503652e-38
0.19349954 0.041883212 1.3060001 1.4015152e-38
0.21299502 0.041883212 1.3060001 1.2705691e-38
0.21949352 0.04445662 1.3060001 8.2846391e-39
0.22339262 0.043169916 1.3060001 6.0831193e-39
0.22729172 0.043169916 1.3060001 6.1774715e-39
0.14801008 0.048316732 1.3060001 7.0054371e-39
0.15277565 0.047887832 1.3060001 8.2054181e-39
0.15840766 0.047030028 1.3060001 1.0054709e-38
0.16230676 0.047030028 1.3060001 1.0148341e-38
0.21862707 0.048745632 1.3060001 7.4584755e-39
0.2229594 0.047887832 1.3060001 6.1713479e-39
0.21429473 0.053463545 1.3060001 4.8917438e-39
0.21776061 0.053034645 1.3060001 6.2710685e-39
0.21429473 0.058610361 1.3060001 6.1813826e-39
0.21299502 0.062470473 1.3060001 6.1781582e-39
0.21299502 0.066330582 1.3060001 5.8965546e-39
0.21299502 0.071477398 1.3060001 5.7114529e-39
0.063529618 0.093351364 1.3060001 1.1507843e-38
0.063529618 0.097211473 1.3060001 1.1231978e-38
0.067428708 0.098498173 1.3060001 7.7339764e-39
0.20259744 0.098498173 1.3060001 1.0120619e-38
0.20779623 0.095924772 1.3060001 6.1713367e-39
0.063529618 0.10107158 1.3060001 1.1323451e-38
0.067428716 0.10235829 1.3060001 1.0583735e-38
0.072627515 0.10235828 1.3060001 8.649802e-39
0.20129773 0.10364499 1.3060001 9.3866202e-39
0.067428708 0.1075051 1.3060001 1.1228371e-38
0.072194278 0.1070762 1.3060001 1.122406e-38
0.19869834 0.10879181 1.3060001 6.8113055e-39
0.20129773 0.1062184 1.3060001 6.6272561e-39
0.067428708 0.11136521 1.3060001 1.1320207e-38
0.071327813 0.11265191 1.3060001 1.1225134e-38
0.19349954 0.11393862 1.3060001 6.5347396e-39
0.19609894 0.11136521 1.3060001 5.0675184e-39
0.06872841 0.11651203 1.3060001 1.1687549e-38
0.071327813 0.11908544 1.3060001 1.1687187e-38
0.18700105 0.11908544 1.3060001 6.348535e-39
0.19219984 0.11779874 1.3060001 9.9383829e-39
0.071327813 0.12294555 1.3060001 1.1964132e-38
0.18310195 0.12423225 1.3060001 1.4444425e-38
0.18700105 0.12294555 1.3060001 1.3890171e-38
0.18180226 0.12809236 1.3060001 1.5269858e-38
0.18570134 0.12680566 1.3060001 1.5361701e-38
0.19815436 -0.045787271 1.3110001 1.7608272e-38
0.20337307 -0.045787271 1.3110001 1.7239487e-38
0.20859176 -0.045787271 1.3110001 1.6962195e-38
0.21250579 -0.045787271 1.3110001 1.6596655e-38
0.19858925 -0.042342924 1.3110001 1.7240933e-38
0.20337307 -0.041912381 1.3110001 1.7055817e-38
0.20859176 -0.041912377 1.3110001 1.6779237e-38
0.21250579 -0.041912381 1.3110001 1.6779961e-38
0.21511514 -0.041912381 1.3110001 1.705798e-38
0.20337307 -0.036745861 1.3110001 1.7056895e-38
0.20859176 -0.036745861 1.3110001 1.6963982e-38
0.21250579 -0.036745861 1.3110001 1.7148733e-38
0.21685472 -0.037176408 1.3110001 1.742604e-38
0.22033384 -0.035454232 1.3110001 1.7610433e-38
0.20337307 -0.032870971 1.3110001 1.6964701e-38
0.20859176 -0.031579342 1.3110001 1.7146579e-38
0.21250579 -0.031579342 1.3110001 1.7330615e-38
0.21772449 -0.031579342 1.3110001 1.7333492e-38
0.22033384 -0.031579342 1.3110001 1.7242015e-38
0.20206839 -0.025121192 1.3110001 1.733168e-38
0.17858423 -0.012204893 1.3110001 1.6963274e-38
0.17858423 -0.0044551138 1.3110001 1.6410825e-38
0.17771445 0.0024335785 1.3110001 1.5859815e-38
0.17336553 0.0084611848 1.3110001 1.5764029e-38
0.17597489 0.0058779251 1.3110001 1.5767982e-38
0.17336553 0.012336074 1.3110001 1.5671826e-38
0.17597489 0.012336074 1.3110001 1.5673627e-38
0.17206086 0.017502595 1.3110001 1.5398108e-38
0.16814683 0.022669114 1.3110001 1.5583212e-38
0.17075619 0.021377483 1.3110001 1.5306984e-38
0.16292813 0.029127263 1.3110001 1.7153066e-38
0.1029131 0.034293782 1.3110001 8.7502948e-39
0.11204582 0.033002153 1.3110001 8.751022e-39
0.16292813 0.033002153 1.3110001 1.8350532e-38
0.1029131 0.036877044 1.3110001 1.0220023e-38
0.10726202 0.038599215 1.3110001 9.6682966e-39
0.1133505 0.036877044 1.3110001 7.9245082e-39
0.16162346 0.038168672 1.3110001 1.8256891e-38
0.21250579 0.039460301 1.3110001 1.4188384e-38
0.21641982 0.039460301 1.3110001 1.1057346e-38
0.22163852 0.039460301 1.3110001 8.1128707e-39
0.22685722 0.039460301 1.3110001 7.1934269e-39
0.16031879 0.043335192 1.3110001 1.4758851e-38
0.21772449 0.042043563 1.3110001 9.2123435e-39
0.22033384 0.042043563 1.3110001 7.6464765e-39
0.23207591 0.043335192 1.3110001 6.0841927e-39
0.22729211 0.048932254 1.3110001 6.0816634e-39
0.22207341 0.054098777 1.3110001 6.3618264e-39
0.22555254 0.053668231 1.3110001 6.1763631e-39
0.21772449 0.057543121 1.3110001 6.089903e-39
0.22163852 0.057543121 1.3110001 6.0870317e-39
0.22555254 0.057543121 1.3110001 5.9930452e-39
0.21772449 0.061418008 1.3110001 5.9047985e-39
0.22163852 0.060126379 1.3110001 5.9015657e-39
0.21772449 0.066584527 1.3110001 5.6217642e-39
0.22033384 0.066584527 1.3110001 5.5274162e-39
0.21772449 0.071751058 1.3110001 5.7128878e-39
0.22120363 0.072181605 1.3110001 5.3448242e-39
0.22555254 0.073042683 1.3110001 7.5506614e-39
0.21250579 0.075625941 1.3110001 5.8050877e-39
0.21641982 0.076917566 1.3110001 5.8065226e-39
0.22163852 0.076917574 1.3110001 4.8860054e-39
0.22555254 0.076917574 1.3110001 6.6305113e-39
0.21772449 0.080792464 1.3110001 5.6217712e-39
0.22163852 0.080792464 1.3110001 5.1600742e-39
0.22555254 0.080792464 1.3110001 5.8943952e-39
0.058554143 0.08595898 1.3110001 1.2246121e-38
0.053335443 0.093708761 1.3110001 1.2336527e-38
0.057249468 0.092417136 1.3110001 1.2060658e-38
0.061163493 0.092417136 1.3110001 1.1877694e-38
0.048116744 0.096292019 1.3110001 1.2703871e-38
0.052030765 0.097583652 1.3110001 1.2243976e-38
0.057249472 0.097583652 1.3110001 1.1784791e-38
