# .PCD v0.7 - Point Cloud Data file format
VERSION 0.7
FIELDS x y z rgb
SIZE 4 4 4 4
TYPE F F F F
COUNT 1 1 1 1
WIDTH 380
HEIGHT 1
VIEWPOINT 0 0 0 1 0 0 0
POINTS 380
DATA ascii
0.0046527223 0.21382894 0.95800006 1.4451602e-38
0.0075128563 0.21382894 0.95800006 1.4360119e-38
0.013550918 0.22767201 0.95800006 1.3443896e-38
0.013233125 0.23176199 0.95800006 1.2246441e-38
0.017761672 0.23294179 0.95800012 1.2982559e-38
0.021813529 0.2336497 0.95800006 1.3441378e-38
0.018381368 0.23723631 0.95800012 1.27067e-38
0.021813529 0.23648123 0.95800006 1.3165156e-38
0.012279747 0.24308816 0.95800006 9.5731582e-39
-0.062083747 0.24969506 0.95800006 1.2980808e-38
-0.060812574 0.25221199 0.95800006 1.2703145e-38
-0.056363478 0.25252658 0.95800006 1.297577e-38
-0.052073278 0.2529985 0.95800006 1.3806576e-38
-0.04492294 0.25347045 0.95800006 1.5460002e-38
-0.065897256 0.25913352 0.95800006 1.2520188e-38
-0.061448164 0.25787508 0.95800006 1.2426554e-38
-0.056363478 0.25535813 0.95800006 1.2791383e-38
-0.051787265 0.25724584 0.95800012 1.3070461e-38
-0.047783077 0.25724584 0.95800012 1.4547388e-38
-0.043969564 0.25724584 0.95800012 1.620725e-38
-0.066373944 0.26338083 0.95800006 1.2242885e-38
-0.061795305 0.26293829 0.95725012 1.1965938e-38
-0.057507526 0.26328644 0.95800012 1.1871945e-38
-0.052514721 0.26272658 0.95733339 1.2241076e-38
-0.047707763 0.26249826 0.95650005 1.4180026e-38
-0.042986255 0.26272526 0.95733339 1.3810522e-38
-0.039202671 0.26290891 0.95800006 1.4361175e-38
-0.065897256 0.26668429 0.95800006 1.187483e-38
-0.062016957 0.26734877 0.95700014 1.1414215e-38
-0.057316855 0.26762813 0.95800006 1.0953957e-38
-0.052549966 0.26668429 0.95800006 1.0126353e-38
-0.047783077 0.26668429 0.95800006 1.1322357e-38
-0.042634834 0.26743937 0.95800012 1.0217827e-38
-0.039202671 0.26762813 0.95800006 9.8486941e-39
-0.061130367 0.27045965 0.95800006 1.1138708e-38
-0.057316855 0.27045965 0.95800006 1.0770289e-38
-0.052549966 0.27045965 0.95800006 9.482441e-39
-0.046829697 0.27045965 0.95800006 8.4704555e-39
-0.043016188 0.27045965 0.95800006 9.3891691e-39
-0.039202671 0.27140349 0.95800006 9.2962532e-39
0.012343838 0.22443266 0.96300006 1.6120427e-38
0.008510422 0.22727898 0.96300006 1.3446773e-38
0.011687844 0.22759549 0.9616667 1.4272214e-38
0.017111884 0.22791176 0.9616667 1.3903793e-38
0.021927377 0.22633021 0.96300006 1.4457691e-38
-0.0068232417 0.23392038 0.96300006 1.307404e-38
-0.0029898263 0.23392038 0.96300006 1.3075115e-38
0.0027602981 0.23392038 0.96300006 1.3166951e-38
0.0075520682 0.23202285 0.96300018 1.3258069e-38
0.010405474 0.23248775 0.96100003 1.2705259e-38
0.019969111 0.23154095 0.96100003 1.3717962e-38
0.022550438 0.23122969 0.96233338 1.3809083e-38
0.027677502 0.23392038 0.96300006 1.3901276e-38
-0.035573862 0.23961301 0.96300006 1.3622179e-38
-0.032219622 0.23818985 0.96300006 1.3622538e-38
-0.029184833 0.2389805 0.96300006 1.3715099e-38
-0.016406782 0.23961301 0.96300006 1.3623641e-38
-0.01353172 0.23961301 0.96300006 1.3073331e-38
-0.0075899251 0.23809497 0.96300012 1.2613785e-38
-0.0029895783 0.23766017 0.96277791 1.2427959e-38
0.0027573081 0.23749515 0.96211118 1.252123e-38
0.0075409482 0.23738568 0.96166676 1.2613424e-38
0.012318201 0.23722175 0.96100003 1.2430472e-38
0.016143655 0.23911536 0.96100003 1.2615586e-38
0.023316383 0.23769516 0.96100003 1.3164797e-38
0.027282665 0.23837495 0.96260005 1.3350263e-38
-0.035499983 0.24290256 0.96100003 1.4361532e-38
-0.032642536 0.24298617 0.96133339 1.380837e-38
-0.028420405 0.24311809 0.96185732 1.2429407e-38
-0.022156907 0.24245933 0.96300018 1.3072248e-38
-0.017365135 0.24245933 0.96300006 1.1871928e-38
-0.012573367 0.24245933 0.96300018 1.0769186e-38
-0.0077815959 0.24245933 0.96300006 9.6664427e-39
-0.0029853149 0.24204001 0.96133339 9.2958707e-39
0.0029938754 0.24272905 0.96125001 8.9288846e-39
0.0075363833 0.24290258 0.96100008 9.9408604e-39
0.012318202 0.24263208 0.96100008 1.104504e-38
0.017817292 0.24266587 0.96100003 1.2332534e-38
0.022838203 0.24195576 0.96100003 1.2610911e-38
0.027677502 0.24245933 0.96300018 1.2705259e-38
0.031510916 0.24151056 0.96300006 1.3352059e-38
-0.063046679 0.24846822 0.96300006 1.3257749e-38
-0.037230525 0.24731152 0.96249998 1.5560076e-38
-0.032682318 0.2480236 0.96250004 1.2245029e-38
-0.027896706 0.24743387 0.96266669 9.114729e-39
-0.022156905 0.24606466 0.96300012 9.298742e-39
-0.01229639 0.24658769 0.96271443 1.0124533e-38
-0.0079668025 0.24661832 0.96219999 9.479892e-39
-0.0029867212 0.24599771 0.96200007 8.8374051e-39
0.002281121 0.24672881 0.96300006 9.2043855e-39
0.0075520677 0.24720319 0.96300006 9.8475941e-39
0.012326747 0.24780902 0.96166676 1.1045397e-38
0.017127208 0.2480236 0.96250004 1.1963395e-38
0.022166964 0.246966 0.96300018 1.2147784e-38
0.027653713 0.24775527 0.96220011 1.2240695e-38
0.032720625 0.24795219 0.96100008 1.2240338e-38
0.035307631 0.24789327 0.96200001 1.2515846e-38
-0.06624119 0.2528958 0.96300006 1.2982246e-38
-0.063148536 0.25278997 0.96260005 1.2797135e-38
-0.058034357 0.25215781 0.96200001 1.2885016e-38
-0.053726736 0.25168443 0.96200001 1.3530354e-38
-0.041238163 0.25426418 0.96100003 1.5366001e-38
-0.03888718 0.2521598 0.96200001 1.5461051e-38
-0.032698799 0.25099826 0.96300006 1.1412765e-38
-0.029823737 0.25099826 0.96300006 9.2951742e-39
-0.020240197 0.25194705 0.96300006 1.2055589e-38
-0.01832349 0.25194705 0.96300006 1.2148861e-38
-0.012333778 0.25265864 0.96300018 1.3069011e-38
-0.0079696365 0.25317025 0.96260005 1.3251605e-38
0.012343838 0.25099826 0.96300006 1.2516562e-38
0.021927377 0.25099826 0.96300006 1.2148502e-38
0.026663657 0.25047699 0.96100003 1.2240695e-38
0.031445473 0.25047699 0.96100003 1.2332531e-38
-0.071032956 0.25858843 0.96300006 1.2797142e-38
-0.067307882 0.25788671 0.96180004 1.2612746e-38
-0.062596954 0.25773579 0.96100008 1.2426915e-38
-0.05773548 0.25864494 0.96180004 1.2515516e-38
-0.053670891 0.2580514 0.96100003 1.2699539e-38
-0.041266769 0.25822911 0.9616667 1.6390551e-38
-0.039407276 0.25763965 0.96300006 1.6483817e-38
-0.011609479 0.25750539 0.96250004 1.4080998e-38
-0.0077725202 0.25737211 0.96200001 1.3437429e-38
-0.071032956 0.26048598 0.96300006 1.2704228e-38
-0.068972707 0.2627854 0.96100003 1.2519112e-38
-0.064190887 0.26183861 0.96100003 1.2243241e-38
-0.056539983 0.26183861 0.96100003 1.2330758e-38
-0.037061311 0.26243448 0.96180004 1.5926692e-38
-0.032630891 0.26373219 0.96100003 1.4087102e-38
-0.029184833 0.26364857 0.96300006 1.4824301e-38
-0.011615012 0.26048598 0.96300006 1.6200046e-38
-0.0087399501 0.26048598 0.96300006 1.4264673e-38
-0.052714527 0.26893961 0.96100003 9.39096e-39
-0.046976343 0.26941305 0.96100008 9.7575817e-39
-0.036456343 0.26751941 0.96100008 1.0771347e-38
-0.03264254 0.26761156 0.96133339 1.0679507e-38
-0.028131133 0.26817369 0.9625001 1.1323063e-38
-0.041238163 0.27320021 0.96100003 9.3880859e-39
-0.036474817 0.27239555 0.96149999 9.1107886e-39
-0.032379352 0.27250373 0.96300006 8.3750242e-39
-0.027907029 0.27263024 0.96300012 7.3644652e-39
0.0032523738 0.21833163 0.96750003 1.4360121e-38
0.0072639855 0.21837768 0.96700001 1.4454811e-38
0.013706513 0.21755707 0.96900004 1.4826098e-38
0.017242372 0.21819353 0.96900004 1.528851e-38
0.022063997 0.21819353 0.96900004 1.5474327e-38
-0.011687379 0.22392163 0.96900004 1.3624371e-38
-0.0010798039 0.22201225 0.96900004 1.371692e-38
0.0030989381 0.22201227 0.96900004 1.3994213e-38
0.0077784671 0.22197938 0.96719998 1.4921888e-38
0.012416473 0.22193523 0.96866661 1.5566886e-38
0.017242372 0.22201227 0.96900004 1.5751632e-38
0.022063995 0.22201227 0.96899998 1.5567961e-38
0.027849948 0.22296695 0.96900004 1.5198103e-38
0.032671571 0.22296694 0.96900004 1.4827887e-38
0.037493195 0.22392163 0.96900004 1.5012995e-38
-0.016509004 0.22964972 0.96900004 1.3440317e-38
-0.012259334 0.22874378 0.9684 1.3256293e-38
-0.0076372148 0.22812223 0.96900004 1.2981859e-38
-0.0030084541 0.22801316 0.96900004 1.298329e-38
0.0027742586 0.22758304 0.96833336 1.2984008e-38
0.0070949248 0.22655943 0.96600002 1.3908104e-38
0.012398534 0.22548142 0.96750003 1.5751291e-38
0.017188989 0.22513184 0.96600002 1.5475779e-38
0.022029843 0.22738487 0.96750009 1.45506e-38
0.027809637 0.22742701 0.96766675 1.4456604e-38
0.032621495 0.22738586 0.96749997 1.4550228e-38
0.037480962 0.22766137 0.96866661 1.5013353e-38
0.041350499 0.22869503 0.96900004 1.5474686e-38
-0.022294955 0.23346846 0.96900004 1.3623618e-38
-0.017473329 0.23251377 0.96900004 1.3439949e-38
-0.012393277 0.23286763 0.96750003 1.3256281e-38
-0.0080078021 0.23265171 0.96719998 1.3073682e-38
-0.003004354 0.23227283 0.96800005 1.3075114e-38
0.0027697734 0.23203388 0.96700001 1.3075474e-38
0.027775191 0.23230425 0.96642864 1.4086385e-38
0.032587778 0.23286514 0.96650004 1.4364761e-38
0.037210081 0.23295724 0.967875 1.4736052e-38
0.041350499 0.23251377 0.96900004 1.5289937e-38
-0.030009555 0.23728719 0.96900004 1.3531061e-38
-0.027074603 0.23787159 0.96750003 1.36229e-38
-0.022279616 0.23712261 0.96833336 1.3898763e-38
-0.017445784 0.2369179 0.96749997 1.3991676e-38
-0.012893653 0.23720053 0.96642864 1.3624696e-38
-0.0087671774 0.23655257 0.96600002 1.3258076e-38
0.027763724 0.23655257 0.96600002 1.3717962e-38
0.032570422 0.2375043 0.96600002 1.4088538e-38
0.037752986 0.23772693 0.96857142 1.4733179e-38
0.04231482 0.23633251 0.96900004 1.5101959e-38
0.046172127 0.23824188 0.96900004 1.51938e-38
-0.055082005 0.24492465 0.96900004 1.3622544e-38
-0.026071288 0.24131119 0.96600002 1.4083882e-38
-0.022225931 0.24035947 0.96600002 1.4267184e-38
-0.018380573 0.24035947 0.96600002 1.3991329e-38
-0.010689856 0.24035947 0.96600002 1.2337922e-38
0.029686403 0.24035947 0.96600002 1.3443538e-38
0.032762688 0.24226294 0.96600002 1.3351701e-38
0.037151292 0.24211977 0.96637505 1.3902712e-38
0.04231482 0.2420606 0.96900004 1.4179298e-38
0.046172123 0.24110591 0.96900004 1.4365128e-38
-0.06067951 0.24892503 0.96600002 1.3072636e-38
-0.056920409 0.24867462 0.96750009 1.3254853e-38
-0.053551745 0.24883272 0.96750003 1.3531063e-38
-0.022225931 0.24940088 0.96600002 9.3902145e-39
-0.017419234 0.24797329 0.96600002 9.3902047e-39
-0.013573874 0.24987675 0.96600002 1.1044321e-38
-0.0068444982 0.24987675 0.96600002 1.0675543e-38
-0.0029991399 0.24987677 0.96600002 1.0492589e-38
0.020073008 0.24987675 0.96600002 1.2148144e-38
0.027763724 0.24702157 0.96600002 1.2148502e-38
0.032249976 0.24670433 0.96600002 1.2333251e-38
0.036473818 0.24645191 0.96750003 1.2609835e-38
-0.07142096 0.25331983 0.96825004 1.3073724e-38
-0.067994229 0.25169235 0.96750003 1.3166277e-38
-0.051145412 0.25121647 0.96750003 1.3990956e-38
-0.036325574 0.25304919 0.96600002 1.4080283e-38
-0.031903256 0.25420886 0.96800005 1.141204e-38
-0.02679514 0.25192565 0.96900004 9.4809906e-39
-0.02318727 0.25273192 0.96600002 1.1779367e-38
-0.016457893 0.25273192 0.96600002 1.2519433e-38
-0.0068444982 0.25178021 0.96600002 1.1963395e-38
-0.0030063444 0.25325617 0.96800005 1.1872636e-38
0.0027774964 0.25256214 0.96899998 1.2148863e-38
0.0074062566 0.25218025 0.96900004 1.2241417e-38
0.012395285 0.25323626 0.96719998 1.2332173e-38
0.017188989 0.25178021 0.96600002 1.2239979e-38
0.020073008 0.25178021 0.96600002 1.2148502e-38
-0.071254246 0.25653884 0.96600002 1.2889691e-38
-0.068370223 0.2555871 0.96600002 1.2982243e-38
-0.03688262 0.25742856 0.96719998 1.5925616e-38
-0.031938206 0.2571446 0.96900004 1.4636683e-38
-0.02711658 0.25733554 0.96900004 1.4913985e-38
-0.021979993 0.25728863 0.96728575 1.5369575e-38
-0.017436272 0.25775614 0.96700001 1.5093705e-38
-0.014535214 0.25749058 0.96600002 1.4357941e-38
-0.0030084539 0.25733554 0.96900004 1.2793863e-38
0.0022953339 0.2568582 0.96900004 1.2332892e-38
0.012420746 0.25638086 0.96900004 1.2057026e-38
-0.036401451 0.26120201 0.96800005 1.6852968e-38
-0.032460146 0.26160264 0.96814287 1.6209755e-38
-0.027492603 0.26176116 0.96771437 1.648526e-38
-0.022536037 0.26234761 0.96899998 1.6667851e-38
-0.017473329 0.26306364 0.96900004 1.7311054e-38
-0.013104489 0.26292941 0.96675003 1.7217429e-38
-0.0078164656 0.26265496 0.96750003 1.4178223e-38
-0.0030084541 0.26115429 0.96900004 1.2703464e-38
0.00084884616 0.26115429 0.96900004 1.2424368e-38
-0.026071288 0.26605612 0.96600002 1.4731027e-38
-0.022269959 0.26756063 0.96799999 1.4362255e-38
-0.017473329 0.26783705 0.96900004 1.5378195e-38
-0.012647352 0.26774558 0.96866661 1.6299434e-38
-0.0087807905 0.26647073 0.96750003 1.7406127e-38
-0.052988794 0.27271819 0.96600002 9.5746352e-39
-0.049143437 0.27271819 0.96600002 8.0123556e-39
-0.033762004 0.27462167 0.96600002 8.7416501e-39
-0.027993968 0.27462167 0.96600002 7.1793677e-39
-0.022538338 0.27265665 0.96771437 8.4689953e-39
-0.017473329 0.27261049 0.96900004 9.7614998e-39
-0.012651704 0.27261049 0.96900004 1.2430138e-38
-0.0078300796 0.27261049 0.96900004 1.4365847e-38
-0.035795506 0.27738389 0.96900004 8.927112e-39
-0.032902531 0.27738389 0.96900004 8.4672185e-39
-0.027993968 0.27652511 0.96600002 7.6399829e-39
-0.021909226 0.27662015 0.96900004 7.1790076e-39
-0.017270243 0.27683029 0.9684 7.1782663e-39
-0.012651704 0.27738386 0.96899998 7.1804383e-39
-0.0080229444 0.27700204 0.96900004 8.8395701e-39
-0.016509004 0.28120261 0.96900004 7.6388815e-39
-0.012651704 0.28120261 0.96900004 7.1800838e-39
0.011169454 0.21759221 0.97200006 1.4546651e-38
0.016328443 0.21695378 0.97200006 1.4916505e-38
0.027956657 0.21901917 0.97266674 1.5291022e-38
-0.0078578638 0.22377181 0.97250009 1.3716562e-38
-0.0034046925 0.22346573 0.97200006 1.3533249e-38
0.00085147418 0.22365725 0.97200006 1.3533603e-38
0.027936168 0.22078435 0.97200006 1.5567602e-38
0.031805411 0.22078434 0.97200006 1.52903e-38
0.036641963 0.22269961 0.97200006 1.4921159e-38
-0.014625495 0.22844544 0.97200006 1.3440333e-38
-0.0088216318 0.22653016 0.97200006 1.3349218e-38
-0.003017768 0.2274878 0.97200006 1.3075131e-38
0.042445831 0.2274878 0.97200006 1.5567242e-38
0.045347758 0.22844544 0.97200006 1.6028223e-38
-0.021985462 0.23275386 0.97240001 1.3532149e-38
-0.018494738 0.23036072 0.97200006 1.3532872e-38
0.043413144 0.23227601 0.97200006 1.556724e-38
0.046121605 0.23227599 0.97200006 1.5842754e-38
0.042445831 0.2399371 0.97200006 1.5190925e-38
0.045347758 0.23610654 0.97200006 1.5470381e-38
-0.058154467 0.24664058 0.97200006 1.3531447e-38
-0.051383298 0.24951349 0.97200006 1.3899838e-38
-0.032037087 0.25908989 0.97200006 1.6301571e-38
-0.027200533 0.25525934 0.97200006 1.1688623e-38
0.0037534058 0.25908989 0.97200006 1.2424009e-38
0.0078161089 0.25755769 0.97200006 1.2240697e-38
0.011169454 0.25845146 0.97200006 1.1872637e-38
-0.0068870103 0.26483572 0.97200006 1.4547001e-38
-0.003017768 0.26483572 0.97200006 1.4361172e-38
0.003338844 0.26319405 0.97200012 1.2794941e-38
0.0078161089 0.26253739 0.97200006 1.2426882e-38
0.011177998 0.26182261 0.97266674 1.2425086e-38
-0.0068870103 0.26770863 0.97200006 1.7496886e-38
-0.0030177683 0.26770863 0.97200006 1.7220659e-38
0.0014982589 0.26757237 0.97266674 1.565335e-38
-0.007854321 0.27058154 0.97200006 1.6760768e-38
-0.003017768 0.27249685 0.972 1.6484899e-38
0.0016268196 0.27310416 0.97280008 1.7223537e-38
0.012484837 0.27449691 0.97400004 1.7224615e-38
0.017008243 0.27433699 0.9740001 1.7497609e-38
-0.052458324 0.27689594 0.97400004 9.3902453e-39
-0.04664252 0.27689594 0.97400004 8.8388694e-39
-0.043734614 0.27689594 0.97400004 9.4813578e-39
-0.0030177683 0.27728504 0.97200006 1.1969519e-38
0.002399171 0.27747658 0.97200006 1.4086748e-38
0.0076226476 0.27728504 0.97200006 1.5379998e-38
0.012464136 0.27737981 0.97233343 1.6299073e-38
0.017331343 0.27785555 0.97400004 1.6482374e-38
0.022177845 0.27785558 0.9740001 1.6574932e-38
-0.0272565 0.28073439 0.97400004 7.9158425e-39
-0.021733781 0.28162891 0.97266674 7.9144006e-39
-0.0030177683 0.28015798 0.97200006 8.5619028e-39
0.0025124277 0.28185821 0.97314292 9.9412261e-39
0.0076349089 0.28154987 0.97350007 1.1414544e-38
0.011515535 0.28169399 0.97400004 1.1416342e-38
0.004745 0.26812318 0.97700006 1.4729243e-38
0.014467864 0.26619804 0.97700006 1.3716887e-38
0.0034486183 0.27197343 0.97700012 1.7222468e-38
0.007661859 0.27389857 0.97700006 1.7867824e-38
0.013171483 0.27325687 0.97700012 1.6945872e-38
0.017384723 0.27293599 0.97700006 1.6667851e-38
0.022246158 0.27389857 0.97700012 1.7408286e-38
-0.056509044 0.27774882 0.97700006 1.0585542e-38
-0.049703039 0.27774882 0.97700006 8.0123542e-39
0.004745 0.27678627 0.97700006 1.6485615e-38
0.007661859 0.27582368 0.97700006 1.7315374e-38
0.022246158 0.27582368 0.97700012 1.7958221e-38
0.026135301 0.27774882 0.97700012 1.657529e-38
0.0073602959 0.26830277 0.98000002 1.3716892e-38
0.012561747 0.26729128 0.98000008 1.3715808e-38
0.022382775 0.26976976 0.98300004 1.4085311e-38
0.032165349 0.26976976 0.98300004 1.5650102e-38
0.0047595701 0.27184302 0.98000002 1.693977e-38
0.0076853866 0.27184302 0.98000002 1.6756799e-38
0.012171637 0.27164993 0.98000002 1.592848e-38
0.017781986 0.2717976 0.98100007 1.5376032e-38
0.022324856 0.27198121 0.98049998 1.5835218e-38
0.027218573 0.27308494 0.98099995 1.7035549e-38
0.032077428 0.27290064 0.98033333 1.731177e-38
0.038034894 0.27267522 0.98299998 1.7586918e-38
0.042600095 0.27299803 0.98300004 1.777419e-38
0.028166097 0.27763611 0.98000002 1.6762555e-38
0.032067187 0.27763611 0.98000002 1.7036624e-38
0.037762053 0.2770637 0.98224998 1.7127738e-38
0.042600095 0.27622628 0.98300004 1.7497961e-38
0.016597224 0.26919517 0.98800004 1.3535369e-38
0.022496624 0.26919517 0.98800004 1.3349903e-38
0.027412791 0.26919517 0.98800004 1.3808364e-38
0.031345725 0.26919517 0.98800004 1.4637035e-38
0.017527074 0.27031866 0.98500007 1.390343e-38
0.022428315 0.27031866 0.98500007 1.3993473e-38
0.027329553 0.27031866 0.98500007 1.4728876e-38
0.032230794 0.27031866 0.98500007 1.5373161e-38
0.037245125 0.27114198 0.98800004 1.583306e-38
0.042523399 0.27080387 0.98500007 1.6843977e-38
0.04600092 0.27253401 0.98600006 1.7124159e-38
0.017633839 0.26268983 0.99100006 1.1964473e-38
0.022170445 0.26298276 0.99100012 1.2056308e-38
0.026509808 0.26415437 0.99100006 1.260804e-38
0.017633839 0.26708347 0.99100006 1.2426521e-38
0.022564933 0.26708347 0.99100012 1.2610191e-38
0.027496029 0.26708347 0.99100006 1.2886418e-38
0.030500781 0.26748624 0.99250007 1.3438507e-38
0.044395741 0.267892 0.99400002 1.1597173e-38
0.047033619 0.26756558 0.99400008 1.0400807e-38
0.018620057 0.27001253 0.99100006 1.3443175e-38
0.022564933 0.27001253 0.99100006 1.3349545e-38
0.034399562 0.27001253 0.99100006 1.4819271e-38
0.043342527 0.27042121 0.99250007 1.3982356e-38
0.047644448 0.27251214 0.99300003 1.5645455e-38
0.050255015 0.27335325 0.99250007 1.6195382e-38
0.048498493 0.27164733 0.99700004 1.3896282e-38
