# .PCD v0.7 - Point Cloud Data file format
VERSION 0.7
FIELDS x y z rgb
SIZE 4 4 4 4
TYPE F F F F
COUNT 1 1 1 1
WIDTH 343
HEIGHT 1
VIEWPOINT 0 0 0 1 0 0 0
POINTS 343
DATA ascii
0.04387749 0.1380365 1.1340001 1.3442464e-38
0.046134546 0.1380365 1.1340001 1.344318e-38
0.06644807 0.13915375 1.1340001 1.4182886e-38
0.072090715 0.13915375 1.1340001 1.4827889e-38
0.04387749 0.14138824 1.1340001 1.3258067e-38
0.046134546 0.14250548 1.1340001 1.3257707e-38
0.067576602 0.14362273 1.1340001 1.4365121e-38
0.072466895 0.14287791 1.1340001 1.491937e-38
0.079990417 0.14362273 1.1340001 1.5750917e-38
0.04387749 0.14809172 1.1340001 1.2705266e-38
0.046134546 0.14809172 1.1340001 1.307404e-38
0.050648663 0.14809172 1.1340001 1.3165519e-38
0.057419837 0.14809172 1.1340001 1.3442459e-38
0.06644807 0.14585721 1.1340001 1.4179296e-38
0.072090715 0.14697447 1.1340001 1.4733183e-38
0.078861892 0.14585721 1.1340001 1.5840956e-38
0.082247473 0.14585721 1.1340001 1.5933506e-38
0.043877494 0.1525607 1.1340001 1.0492599e-38
0.047263078 0.1525607 1.1340001 1.1043607e-38
0.051777191 0.15256071 1.1340001 1.1506374e-38
0.057419837 0.1525607 1.1339999 1.233828e-38
0.063062489 0.1525607 1.1340001 1.3258429e-38
0.067576602 0.1525607 1.1340001 1.3903071e-38
0.072058432 0.15249245 1.1335 1.445588e-38
0.047263075 0.15814692 1.1340001 1.0584069e-38
0.051777191 0.15814692 1.1340001 9.9394226e-39
0.057393529 0.1580767 1.1335 1.0492594e-38
0.062977575 0.15793772 1.1325001 1.0679134e-38
0.067576602 0.15814692 1.1340001 1.1509245e-38
0.071899995 0.15772854 1.131 1.2613071e-38
0.047263078 0.1626159 1.1340001 1.2243215e-38
0.051777191 0.1626159 1.1340001 1.159821e-38
0.057419837 0.1626159 1.1340001 1.1414177e-38
0.062977575 0.1624008 1.1325001 1.031215e-38
0.067576602 0.1626159 1.1340001 1.0679133e-38
0.072090715 0.1626159 1.1340001 1.1505294e-38
0.051777191 0.16596763 1.1340001 1.1966625e-38
0.057367213 0.16582128 1.1330001 1.2058103e-38
0.064191014 0.16596763 1.1340001 1.1323777e-38
0.067952782 0.16671246 1.1340001 1.1415612e-38
0.072090715 0.16708487 1.1340001 1.1691835e-38
0.06644807 0.17043662 1.1340001 1.1783318e-38
0.072090715 0.17043662 1.1340001 1.1967343e-38
0.075376466 0.18694915 1.1325001 1.906527e-38
0.03497218 0.13964458 1.138 1.3625768e-38
0.038369708 0.13964458 1.138 1.3442456e-38
0.04176724 0.13964458 1.138 1.3442817e-38
0.057622373 0.13964459 1.138 1.4180375e-38
0.063284919 0.13964458 1.138 1.3998499e-38
0.068947472 0.13964458 1.138 1.4459469e-38
0.03497218 0.14188695 1.138 1.3532855e-38
0.038369708 0.14300814 1.138 1.3440665e-38
0.042522248 0.14338186 1.138 1.325735e-38
0.048562296 0.14300814 1.138 1.3073679e-38
0.05233733 0.14338188 1.138 1.316587e-38
0.057622373 0.14300814 1.138 1.3717604e-38
0.063284919 0.14300814 1.138 1.3995983e-38
0.067814961 0.14188695 1.138 1.4366197e-38
0.071212493 0.14188695 1.138 1.4735337e-38
0.076875046 0.14300814 1.138 1.5381421e-38
0.034217175 0.14786661 1.138 1.2794941e-38
0.038369708 0.14749287 1.138 1.2979335e-38
0.042522248 0.14711915 1.138 1.2981487e-38
0.047807291 0.14711916 1.138 1.3165514e-38
0.05233733 0.14711916 1.138 1.307404e-38
0.057622373 0.14693227 1.138 1.3442456e-38
0.063284919 0.14749289 1.138 1.3718683e-38
0.068192467 0.14786661 1.138 1.4180373e-38
0.076497547 0.14786661 1.138 1.547074e-38
0.082537591 0.14861408 1.138 1.5839876e-38
0.033839673 0.15197763 1.138 1.0494749e-38
0.038369708 0.15197763 1.138 1.0677708e-38
0.04176724 0.15197763 1.138 1.0311442e-38
0.076875046 0.15197763 1.138 1.5193438e-38
0.082537591 0.15085644 1.138 1.5655487e-38
0.038369708 0.15758353 1.138 1.0768101e-38
0.042673249 0.15803201 1.138 1.0676986e-38
0.076875046 0.15758356 1.138 1.3811243e-38
0.08221402 0.15822423 1.138 1.3443902e-38
0.087067626 0.15982592 1.138 1.1693641e-38
0.038369708 0.16206829 1.138 1.2425444e-38
0.043277256 0.16281575 1.138 1.2426883e-38
0.076875046 0.16318947 1.138 1.2055591e-38
0.083670102 0.16431066 1.138 1.2056668e-38
0.047429785 0.16655304 1.138 1.1875867e-38
0.059887394 0.16879541 1.138 1.1966266e-38
0.06290742 0.16804795 1.138 1.1691117e-38
0.066682458 0.16879541 1.138 1.169148e-38
0.076497547 0.16730049 1.138 1.1874429e-38
0.083670102 0.16767421 1.138 1.113832e-38
0.059887394 0.17103778 1.138 1.1782595e-38
0.063284919 0.17103778 1.138 1.1782954e-38
0.068947472 0.17103778 1.138 1.1875869e-38
0.075742535 0.17103778 1.138 1.2150295e-38
0.082537591 0.17103778 1.138 1.1414179e-38
0.066682458 0.19346151 1.138 1.4825748e-38
0.076875046 0.19234033 1.138 1.6671095e-38
0.064417429 0.19570388 1.138 1.1047575e-38
0.066682458 0.19682506 1.138 1.1410615e-38
0.071212493 0.19570388 1.138 1.2430479e-38
0.076875046 0.19570388 1.138 1.3534318e-38
0.066682458 0.20018862 1.138 1.1963423e-38
0.048732992 0.13788518 1.1420001 1.3444977e-38
0.023730202 0.14463595 1.1420001 1.389984e-38
0.032822128 0.14238569 1.1420001 1.3716167e-38
0.035095107 0.14463595 1.1420001 1.3531419e-38
0.048732992 0.14013544 1.1420001 1.3166595e-38
0.051763635 0.14088553 1.1420001 1.3166953e-38
0.031685635 0.14801133 1.1420001 1.2887497e-38
0.030549144 0.15251184 1.1420001 1.0309641e-38
0.081691206 0.15363696 1.1420001 1.537926e-38
0.085100681 0.15363696 1.1420001 1.5656207e-38
0.032822128 0.15701234 1.1420001 1.1043245e-38
0.035095107 0.15701234 1.1420001 1.0767381e-38
0.082827702 0.15588722 1.1420001 1.5287788e-38
0.085100681 0.15588722 1.1420001 1.5379626e-38
0.032822128 0.16151285 1.1420001 1.3249095e-38
0.036799844 0.16320054 1.1420001 1.2885339e-38
0.04191405 0.16488823 1.1420001 1.2610551e-38
0.081312381 0.16338807 1.1420001 1.2147426e-38
0.085100681 0.16263798 1.1420001 1.1687531e-38
0.043050542 0.16713849 1.1420001 1.178439e-38
0.057824917 0.16938874 1.1420001 1.2057746e-38
0.078281738 0.16938874 1.1420001 1.1690403e-38
0.080554716 0.16826361 1.1420001 1.1506015e-38
0.057824917 0.17276412 1.1420001 1.1690047e-38
0.060097896 0.17388923 1.1420001 1.1600008e-38
0.077145249 0.17276412 1.1420001 1.2425444e-38
0.080554716 0.171639 1.1420001 1.1690042e-38
0.06464386 0.19414152 1.1420001 1.4552032e-38
0.063128546 0.19789195 1.1420001 1.0672347e-38
0.069189817 0.1975169 1.1420001 1.1782969e-38
0.072978117 0.19789195 1.1420001 1.2243578e-38
0.077145249 0.19864203 1.1420001 1.2699888e-38
0.080554716 0.19639178 1.1420001 1.3809819e-38
0.06464386 0.20201741 1.1420001 1.2514432e-38
0.06843216 0.20239246 1.1420001 1.2332906e-38
0.072599284 0.20201741 1.1420001 1.2241418e-38
0.02381332 0.14852974 1.146 1.307224e-38
0.027462829 0.14740068 1.146 1.3164078e-38
0.030656148 0.1462716 1.146 1.3623974e-38
0.02381332 0.15304601 1.146 9.9433715e-39
0.027614892 0.15266965 1.1460001 1.0126326e-38
0.028375205 0.15756229 1.146 1.1227992e-38
0.030656148 0.15756229 1.146 1.1136874e-38
0.028375205 0.16320762 1.146 1.426682e-38
0.030656148 0.16207856 1.146 1.3617514e-38
0.032937091 0.16546576 1.146 1.3895533e-38
0.037498973 0.16697119 1.1460001 1.3070805e-38
0.0523251 0.16998203 1.146 1.1782235e-38
0.055746511 0.16998203 1.146 1.2057743e-38
0.053465568 0.17336923 1.146 1.17826e-38
0.055746511 0.17336923 1.146 1.1690405e-38
0.053465568 0.17675643 1.146 1.2518382e-38
0.056886982 0.1778855 1.146 1.2978627e-38
0.061068714 0.17750916 1.1460001 1.25216e-38
0.019251436 0.18578897 1.146 8.561921e-39
0.064109966 0.19256338 1.1460001 1.6760405e-38
0.068519793 0.19211176 1.146 1.7498684e-38
0.073081672 0.1925634 1.146 1.6948034e-38
0.053465568 0.19933778 1.146 1.0764552e-38
0.058027454 0.19820872 1.146 1.0122393e-38
0.060308397 0.19820872 1.146 1.0307149e-38
0.081977352 0.19820872 1.146 1.3347774e-38
0.086539224 0.19707964 1.146 1.4178968e-38
0.019318633 0.14791517 1.1500001 1.4175343e-38
0.021607535 0.14791517 1.1500001 1.4084225e-38
0.026185343 0.14791517 1.1500001 1.3808003e-38
-0.0058745933 0.15284489 1.153 1.5281329e-38
-0.0024306099 0.15264605 1.1515 1.5832339e-38
0.0023807448 0.15199402 1.1500001 1.5741231e-38
0.0055852099 0.15244721 1.1500001 1.5831625e-38
0.019335432 0.15257977 1.151 1.0496184e-38
0.021626323 0.15257977 1.151 1.0679851e-38
0.026185343 0.15471323 1.1500001 1.0032693e-38
-0.0058745933 0.15625277 1.153 1.5926689e-38
-0.0024322812 0.15511681 1.153 1.5922736e-38
0.0025399472 0.15738875 1.1530001 1.6016013e-38
0.0063598817 0.15876687 1.1520001 1.5096937e-38
0.013048508 0.15899031 1.1522499 1.2977537e-38
0.017824303 0.15800956 1.152 1.1872285e-38
0.022795755 0.15842234 1.1522501 1.1322699e-38
0.026185343 0.15811226 1.1500001 1.1321621e-38
-0.0070220307 0.16420452 1.153 1.4640274e-38
-0.0024322812 0.16420452 1.153 1.5745535e-38
0.0025370808 0.16330481 1.152 1.6761831e-38
0.0067472169 0.16306856 1.153 1.7589436e-38
0.012484404 0.16306858 1.153 1.7495087e-38
0.018221591 0.16306856 1.153 1.5923816e-38
0.022780171 0.16285643 1.1515 1.4080639e-38
0.02694831 0.16226661 1.1500001 1.3712217e-38
-0.015054092 0.16761242 1.153 1.1967027e-38
-0.01161178 0.16874838 1.153 1.1324179e-38
-0.0070220307 0.16761242 1.153 1.1873739e-38
-0.0024322814 0.16761242 1.153 1.3623984e-38
0.0021553182 0.16750413 1.1522501 1.4088184e-38
0.0067472174 0.16647646 1.153 1.6299443e-38
0.012927997 0.1672108 1.1518 1.7312858e-38
0.018208992 0.16750267 1.1522501 1.7956422e-38
0.02276608 0.16728461 1.15075 1.6939769e-38
0.027329795 0.16717632 1.1500001 1.5456021e-38
0.031526119 0.16755399 1.1500001 1.4447623e-38
0.035340954 0.16830933 1.1500001 1.380621e-38
-0.011604974 0.17204356 1.1522501 1.0862849e-38
-0.0070220307 0.17215627 1.153 1.0399723e-38
-0.0024322814 0.17215627 1.153 1.0217835e-38
0.0021574679 0.17215627 1.153 1.0770629e-38
0.0067472169 0.17215627 1.153 1.1782253e-38
0.012471586 0.17200696 1.152 1.3627213e-38
0.018208992 0.17204356 1.1522501 1.5565103e-38
0.022781665 0.17193085 1.1515 1.7590885e-38
0.026253652 0.17215627 1.153 1.8140812e-38
0.031990837 0.17215627 1.153 1.5923106e-38
0.037661586 0.17185865 1.151 1.3528907e-38
0.043437682 0.17204502 1.1522501 1.0952851e-38
0.047990948 0.17193231 1.1515 1.1597491e-38
0.051363282 0.17284137 1.1500001 1.1782595e-38
-0.01045073 0.17647174 1.1515 1.0494425e-38
-0.0070220307 0.17670015 1.153 9.8505046e-39
-0.0024322812 0.17670015 1.153 9.2991301e-39
0.0023852356 0.177288 1.1523999 9.4824326e-39
0.0067320894 0.17744952 1.1505001 9.2966022e-39
0.012458475 0.17747492 1.1506668 9.297677e-39
0.018174183 0.17737339 1.1500001 1.0588741e-38
0.022751987 0.17737339 1.1500001 1.3170915e-38
0.026995841 0.17692457 1.1520001 1.6671096e-38
0.030843401 0.17556417 1.153 1.823624e-38
0.035433147 0.17556417 1.153 1.7129174e-38
0.042317774 0.17556417 1.1530001 1.4171046e-38
0.047990948 0.17647025 1.1515 1.325412e-38
0.051935509 0.17793991 1.1500001 1.2979343e-38
-0.0024322812 0.18010803 1.153 9.3916789e-39
0.0021574679 0.18237996 1.153 9.7575775e-39
0.0067296615 0.18303844 1.1500001 9.6653819e-39
0.012457335 0.18311851 1.1505001 9.2058513e-39
0.018174181 0.18303844 1.1500001 8.4693666e-39
0.022751987 0.18303844 1.1500001 8.1927755e-39
0.027129421 0.18254727 1.1512001 1.1232701e-38
0.031608358 0.18389457 1.1530001 1.3443929e-38
0.048284445 0.18283434 1.153 1.6943356e-38
0.052574724 0.18327719 1.1515 1.6663897e-38
0.057085536 0.18303844 1.1500001 1.5834139e-38
0.061784737 0.18339729 1.1522499 1.5096221e-38
0.06526652 0.18237996 1.153 1.4081727e-38
0.012484403 0.18692383 1.1530001 9.2062058e-39
0.017807506 0.18811224 1.151 8.654118e-39
0.022751987 0.18757048 1.1500001 7.5481418e-39
0.027329795 0.18757048 1.1500001 8.006599e-39
0.031990837 0.18805978 1.153 8.6537425e-39
0.048054956 0.18805978 1.153 1.8052596e-38
0.052644707 0.18805978 1.153 1.8328094e-38
0.057158507 0.18781513 1.1515 1.8143693e-38
0.061783247 0.18793671 1.1522499 1.7957134e-38
0.06685584 0.18825856 1.15075 1.8694326e-38
0.072726384 0.18794815 1.1500001 1.8509939e-38
0.083407931 0.18870348 1.1500001 1.7209159e-38
0.02281134 0.19146767 1.153 9.2022626e-39
0.027382521 0.19247907 1.1522501 8.8341989e-39
0.031990837 0.19260362 1.153 7.4541469e-39
0.036580585 0.19260362 1.153 8.2831747e-39
0.042317774 0.19260363 1.153 1.0680574e-38
0.048054956 0.19260362 1.153 1.3814491e-38
0.052609719 0.19247761 1.1522501 1.547075e-38
0.057122022 0.19222705 1.15075 1.6392713e-38
0.061702814 0.19222704 1.15075 1.7589806e-38
0.071963415 0.19323552 1.1500001 1.7313583e-38
0.082717493 0.19264822 1.151 1.8141532e-38
0.086841293 0.19210251 1.1500001 1.7677316e-38
0.02740109 0.1971475 1.153 1.19652e-38
0.031927664 0.19676352 1.15075 1.1320573e-38
0.037693314 0.19697653 1.152 1.0213147e-38
0.043465212 0.1971475 1.153 1.0030901e-38
0.047960438 0.19676206 1.15075 1.039825e-38
0.05254123 0.19676204 1.15075 1.0768469e-38
0.056704056 0.19625688 1.1500001 1.1508193e-38
0.060518894 0.19550154 1.1500001 1.3813408e-38
0.082372278 0.19575652 1.1515 1.6301584e-38
0.087067828 0.19601153 1.153 1.667181e-38
0.090274647 0.19776756 1.1500001 1.3994588e-38
-0.0081978096 0.15337513 1.1570001 1.4635607e-38
-0.0081978096 0.15679485 1.1570001 1.5554318e-38
-0.0024407194 0.15793476 1.1570001 1.6111796e-38
0.0010135346 0.15793476 1.1570001 1.6293671e-38
-0.015106319 0.16249439 1.1570001 1.2793534e-38
-0.011652064 0.16363429 1.1570001 1.3347762e-38
-0.0070463913 0.16135448 1.1570001 1.6207596e-38
-0.0024407194 0.16135448 1.1570001 1.6483456e-38
0.0010135346 0.16135448 1.1570001 1.6849357e-38
0.019436222 0.16021457 1.1570001 1.2608759e-38
-0.018176768 0.16857389 1.1570001 1.2244327e-38
-0.011652064 0.167054 1.1570001 1.1967731e-38
0.0067706248 0.1693338 1.1570001 1.454846e-38
0.010224879 0.1693338 1.1570001 1.5748424e-38
-0.022014827 0.17161362 1.1570001 1.2335445e-38
-0.017409155 0.17275354 1.1570001 1.1691163e-38
0.028647566 0.17275351 1.1570001 1.7951393e-38
-0.016257737 0.17617324 1.1570001 1.1322741e-38
-0.012803482 0.17617324 1.1570001 1.0954323e-38
0.028647566 0.17617324 1.1570001 1.8420634e-38
0.032101821 0.17731315 1.1570001 1.7866387e-38
0.036707494 0.17731315 1.1570001 1.7035555e-38
0.042464584 0.17845306 1.1570001 1.592382e-38
-0.0058949734 0.18073286 1.1570001 9.9434121e-39
-0.0012893014 0.18301266 1.1570001 9.7586579e-39
0.028647566 0.18073286 1.1570001 1.5655524e-38
0.032101821 0.18187276 1.1570001 1.6485639e-38
0.043999813 0.18149279 1.1570001 1.7494394e-38
0.047070257 0.18073286 1.1570001 1.5650115e-38
0.0067706248 0.18757229 1.1570001 9.9412415e-39
0.036707494 0.18871219 1.1570001 1.2155708e-38
0.042752437 0.18785727 1.1570001 1.6485981e-38
0.024041895 0.19441172 1.1570001 1.0858164e-38
-0.010536949 0.15390539 1.161 1.3716176e-38
-0.017469341 0.15790884 1.161 1.2888605e-38
-0.011692348 0.15848076 1.161 1.2796389e-38
-0.017469341 0.16305615 1.161 1.2887169e-38
-0.011692348 0.16076846 1.161 1.3071533e-38
-0.022090936 0.16877538 1.161 1.2611667e-38
-0.01862474 0.16648769 1.161 1.2612384e-38
0.033368204 0.17907 1.161 1.8329881e-38
0.037989799 0.17907 1.161 1.7405772e-38
-0.0082261516 0.1813577 1.161 1.0402588e-38
-0.0036045562 0.18364538 1.161 9.850855e-39
0.033368204 0.1813577 1.161 1.7868556e-38
0.0368344 0.18250154 1.161 1.787e-38
0.041070864 0.18288283 1.161 1.8329181e-38
0.0368344 0.18593308 1.161 1.6210494e-38
0.040300597 0.18593308 1.161 1.7960395e-38
0.014881823 0.19050846 1.161 9.0225376e-39
0.01834802 0.19279616 1.161 9.9390989e-39
-0.012892011 0.15443563 1.1650001 1.2797835e-38
-0.022167046 0.15902679 1.1650001 1.325595e-38
-0.015210769 0.15673122 1.1650001 1.2705293e-38
-0.01173263 0.15673122 1.1650001 1.2980061e-38
-0.022167046 0.16247015 1.1650001 1.3071559e-38
-0.019075368 0.16208756 1.1650002 1.2979723e-38
-0.022167046 0.16591351 1.1650001 1.2887529e-38
-0.019848287 0.16591351 1.1650001 1.2796055e-38
-0.012892011 0.17968695 1.1650001 1.095396e-38
-0.0059357337 0.1842781 1.1650001 1.0218916e-38
-0.015315221 0.18092085 1.1730001 1.1230182e-38
-0.011853483 0.18385702 1.177 1.0770645e-38
-0.016594974 0.18331832 1.1810001 1.1322735e-38
