# .PCD v0.7 - Point Cloud Data file format
VERSION 0.7
FIELDS x y z rgb
SIZE 4 4 4 4
TYPE F F F F
COUNT 1 1 1 1
WIDTH 1023
HEIGHT 1
VIEWPOINT 0 0 0 1 0 0 0
POINTS 1023
DATA ascii
0.093174174 0.011818837 1.2045778 1.4104112e-38
0.097501621 0.011678915 1.2044895 1.4657649e-38
0.10117808 0.010623497 1.2046161 1.4841323e-38
0.1049304 0.049341787 1.2046419 6.8225215e-39
0.10719635 0.049076881 1.2042773 7.0983516e-39
0.11199377 0.048809618 1.2032617 6.6352393e-39
0.1173194 0.048040703 1.2033265 6.7288727e-39
0.12231832 0.048127528 1.2031182 6.8217928e-39
0.12755771 0.047490615 1.2049757 7.4664517e-39
0.13130412 0.049615841 1.2044249 5.8997958e-39
0.0049208542 0.054818373 1.2038119 1.3992069e-38
0.0096638016 0.053205382 1.2040569 1.3992069e-38
0.012340878 0.054330211 1.2015589 1.1692597e-38
0.017161006 0.05307376 1.2020769 9.1169123e-39
0.022020521 0.052155007 1.2022572 7.8305119e-39
0.027519988 0.051544663 1.2022018 7.3716945e-39
0.03303761 0.051366471 1.2020198 7.2794975e-39
0.038393807 0.05123274 1.202461 7.6475583e-39
0.043157451 0.051742107 1.2025691 7.9270053e-39
0.047744848 0.052918162 1.2021511 7.8369536e-39
0.052581605 0.053593285 1.2026513 7.7458398e-39
0.057414953 0.053683154 1.2039584 8.3922742e-39
0.061591119 0.053998109 1.2043087 7.8369634e-39
0.066820279 0.054422773 1.2041825 7.7419036e-39
0.072298348 0.054472674 1.2043731 6.8196138e-39
0.077530727 0.05439204 1.2044568 6.7270594e-39
0.082484089 0.054335412 1.204535 6.3593545e-39
0.08831992 0.054174151 1.2045082 7.2848729e-39
0.092219912 0.053995207 1.2043086 6.916812e-39
0.097522736 0.053528056 1.203441 6.6391433e-39
0.10235892 0.053106334 1.2022619 6.9128576e-39
0.10684156 0.052070282 1.2018404 6.3561035e-39
0.11213103 0.051905781 1.2007958 6.8199739e-39
0.1172294 0.051382974 1.2006416 7.1884019e-39
0.12189712 0.050989628 1.2007837 7.0040162e-39
0.12665622 0.051348593 1.2014859 7.5535452e-39
0.13238986 0.052409735 1.201674 8.9339489e-39
0.13765495 0.052759748 1.2022415 9.0250656e-39
0.14274386 0.053142957 1.2029841 9.3934823e-39
0.14741084 0.053889867 1.2033606 9.3938397e-39
0.15237519 0.054213062 1.2041324 8.015231e-39
0.15793821 0.054432884 1.2047679 7.0986809e-39
0.0028077848 0.056871235 1.2022254 1.3716921e-38
0.0076516354 0.05589284 1.2015231 1.2888607e-38
0.051864121 0.055643626 1.2003891 9.5000329e-39
0.057317387 0.055979561 1.2009956 6.9128604e-39
0.062244907 0.056409515 1.2016002 6.8199529e-39
0.067125313 0.056704659 1.2018931 6.9089199e-39
0.072185896 0.05660414 1.202252 7.2769752e-39
0.077539138 0.056931276 1.2020483 7.1844194e-39
0.082728803 0.056745369 1.2022268 6.7259608e-39
0.087592296 0.056858938 1.2017908 5.9912754e-39
0.0927587 0.056294639 1.2016196 6.3622019e-39
0.097732678 0.055855986 1.2008975 6.9160819e-39
0.10190944 0.05522532 1.2000405 6.2621254e-39
0.14224271 0.055285711 1.2007132 8.0116423e-39
0.14739437 0.05629858 1.2009652 6.8170634e-39
0.15229088 0.056793258 1.2016611 7.2773171e-39
0.15747708 0.057000067 1.2023879 6.8199417e-39
0.16247834 0.057581883 1.2025932 7.0050504e-39
0.16750279 0.057963498 1.2028131 6.9117744e-39
0.17231487 0.057992604 1.2031605 6.6326735e-39
0.17727859 0.057964571 1.2036322 7.0010889e-39
0.18247694 0.058172472 1.2039388 7.3709392e-39
0.18772037 0.05860807 1.2040343 7.6464457e-39
0.19231825 0.059132513 1.2040741 7.0932803e-39
0.19703758 0.059456002 1.2043092 6.0805816e-39
0.20176777 0.059696577 1.204565 5.711104e-39
-0.0030224188 0.061795983 1.20015 1.3992069e-38
0.16245863 0.06072066 1.2001925 7.0054161e-39
0.16701132 0.060776062 1.2003905 6.4497242e-39
0.17258981 0.061113782 1.2006083 6.3560866e-39
0.17766838 0.061411116 1.2008542 6.3578761e-39
0.18290241 0.061887931 1.2009907 6.6358923e-39
0.18791537 0.06245276 1.2011045 6.5433408e-39
0.19274651 0.062854245 1.2014127 6.2653344e-39
0.19760486 0.062695667 1.2021362 6.0795166e-39
0.2026169 0.062382255 1.2029887 5.6196258e-39
0.20736963 0.062668532 1.2034745 5.7121788e-39
0.21192941 0.063066855 1.2041883 5.8954882e-39
0.19432552 0.065288052 1.2004675 5.9019216e-39
0.19706759 0.065676324 1.200392 5.7136053e-39
0.20264563 0.066903636 1.2006198 5.6199818e-39
0.20736521 0.067540005 1.2011379 5.6199804e-39
0.21217789 0.06738548 1.2022405 5.6192601e-39
0.21696799 0.067341946 1.2036942 5.7103767e-39
0.22191264 0.069441944 1.2047058 5.8947652e-39
0.20853898 0.071721159 1.2003955 5.6196202e-39
0.21242787 0.072376274 1.2012672 5.4359464e-39
0.21715857 0.072512448 1.2028106 5.4345059e-39
0.22111166 0.072012894 1.2041782 5.616742e-39
0.20383766 0.077796757 1.2000852 5.0725239e-39
0.20804201 0.078123972 1.200623 5.2540537e-39
0.21221659 0.077204406 1.2014804 5.5284882e-39
0.21762486 0.077587701 1.2033992 5.5256183e-39
0.18266968 0.084746048 1.2001853 9.8458061e-39
0.18736461 0.084207878 1.2003275 1.0029477e-38
0.19247378 0.083733395 1.20043 7.9154712e-39
0.19738278 0.083089575 1.2005503 5.9855021e-39
0.20218743 0.082597114 1.2008449 5.2536907e-39
0.20719516 0.082928263 1.2017578 5.3480374e-39
0.21248606 0.082774468 1.2030437 5.6206754e-39
0.21652827 0.081980377 1.2044135 5.986937e-39
0.0034897472 0.086634845 1.2023108 1.0679534e-38
0.0077327522 0.08824341 1.2012213 1.0311466e-38
0.011200091 0.089741655 1.200583 1.0219275e-38
0.15421465 0.08968927 1.20002 6.1820916e-39
0.15773526 0.089229994 1.2001371 6.2660308e-39
0.1630592 0.08899489 1.2003932 6.2667455e-39
0.16757062 0.088827521 1.2005899 6.6312148e-39
0.17237051 0.087853797 1.2006027 7.182225e-39
0.17720418 0.087166443 1.2006848 7.6399689e-39
0.18249069 0.08714027 1.2010159 8.3746501e-39
0.18693617 0.087166525 1.2011753 7.7303681e-39
0.19208717 0.087106645 1.2014343 6.7201818e-39
0.19719617 0.087343194 1.2019262 5.7135829e-39
0.20242155 0.087845407 1.2027588 5.1647195e-39
0.20726672 0.087290697 1.2035747 5.7168059e-39
0.21196543 0.085985243 1.2043749 5.808284e-39
0.0075953254 0.09149126 1.2039127 9.7590209e-39
0.012848331 0.09285678 1.2020123 8.3771794e-39
0.017328989 0.093914181 1.2007688 6.5365192e-39
0.14197686 0.094012484 1.2003143 6.9056395e-39
0.14701296 0.092906475 1.200632 6.9056423e-39
0.15220416 0.092789285 1.2012134 6.5372269e-39
0.1574911 0.092599794 1.201542 6.0809249e-39
0.16253157 0.092787959 1.2019272 6.1734778e-39
0.16787931 0.092547849 1.2021474 6.4475452e-39
0.17253569 0.092349201 1.2023903 6.2613645e-39
0.1772498 0.092011578 1.2025443 7.0882399e-39
0.18181127 0.091939166 1.2027886 7.2715535e-39
0.18714254 0.092602186 1.2032986 6.9045731e-39
0.19243351 0.092372887 1.2035112 6.2617246e-39
0.19731861 0.09202002 1.2037867 5.344806e-39
0.20186763 0.091614448 1.2042989 5.0721679e-39
0.20577314 0.090557151 1.2047992 4.7959496e-39
0.013340829 0.095663592 1.2038192 8.8385135e-39
0.017778646 0.097382411 1.2029223 7.5488663e-39
0.022749601 0.09778145 1.2013245 6.5368794e-39
0.027376235 0.098769426 1.2007051 6.0769914e-39
0.03192836 0.099558167 1.200253 6.7191042e-39
0.12322015 0.099399045 1.2001288 6.9935331e-39
0.12707213 0.099337243 1.2005011 6.3514049e-39
0.13244601 0.098606989 1.2008507 6.5361507e-39
0.13746542 0.097831227 1.2012808 6.4464648e-39
0.142519 0.09740933 1.2019639 6.7223272e-39
0.14773634 0.097383879 1.202728 6.6301344e-39
0.15285042 0.097963415 1.2035606 6.1698877e-39
0.15769599 0.097007178 1.2034829 6.6304987e-39
0.16258861 0.097178556 1.2038367 6.9070814e-39
0.16735543 0.097019143 1.2040088 6.1698877e-39
0.17218445 0.096688896 1.2041354 6.0766187e-39
0.17727003 0.096387058 1.2042915 5.9840685e-39
0.18241808 0.09611994 1.2044609 6.4446809e-39
0.18733372 0.095943965 1.2046117 6.0773404e-39
0.1925538 0.095521361 1.2048036 5.892589e-39
0.01879612 0.10049935 1.2045573 7.1797292e-39
0.022848038 0.10152131 1.2036439 6.5372437e-39
0.02733415 0.10245626 1.2029487 5.8014835e-39
0.032502431 0.1026467 1.2020721 5.7100054e-39
0.03781813 0.10275861 1.2015765 5.9851475e-39
0.042904194 0.10272112 1.2013081 6.71947e-39
0.04791338 0.1027861 1.201233 7.6385368e-39
0.052637942 0.10270535 1.2011627 8.0062305e-39
0.057255901 0.10286149 1.2012538 7.5466929e-39
0.062101614 0.10303862 1.2013555 6.5361493e-39
0.067199893 0.10288788 1.2013195 5.895819e-39
0.072363265 0.10244405 1.2010963 5.713227e-39
0.077345952 0.10256919 1.2010696 5.8039891e-39
0.082366765 0.10283934 1.2010736 5.7107186e-39
0.087597407 0.10292905 1.2009802 5.6178097e-39
0.092824459 0.10301605 1.2008982 5.709648e-39
0.09786468 0.10306859 1.2009338 6.0777047e-39
0.10255789 0.10298973 1.2010049 6.5368808e-39
0.10738138 0.1025534 1.2009108 6.9045773e-39
0.11213129 0.10253152 1.201169 7.6399745e-39
0.11730751 0.10231713 1.2013658 7.8232826e-39
0.1218349 0.10206988 1.2015477 8.0062347e-39
0.1268896 0.10252135 1.2022374 7.1789978e-39
0.13236238 0.10251508 1.202878 6.3532e-39
0.13725129 0.10234302 1.2035356 6.2642301e-39
0.142021 0.10182534 1.2040375 6.4482599e-39
0.14715074 0.10098819 1.2043555 6.3557041e-39
0.15156436 0.10062798 1.2046757 6.3596515e-39
0.15830782 0.10013698 1.2049382 5.247951e-39
0.028308718 0.1057654 1.2046912 5.2515496e-39
0.032911632 0.10649938 1.2042927 5.066438e-39
0.03808007 0.10705238 1.2039771 5.9847874e-39
0.042766403 0.10758044 1.2038994 6.7198273e-39
0.047610741 0.10764864 1.2036595 7.4552245e-39
0.0526371 0.10777745 1.2035557 7.5474131e-39
0.057329211 0.10782698 1.2035275 7.3630233e-39
0.062113777 0.10803492 1.2036468 6.7205392e-39
0.066938803 0.1077333 1.2035793 5.9880118e-39
0.072174333 0.10775071 1.2036957 6.3571502e-39
0.077225439 0.10763001 1.2036837 5.8961819e-39
0.082252525 0.1074861 1.2035984 5.8025555e-39
0.087059803 0.10728391 1.2034576 5.708932e-39
0.092311338 0.1077589 1.2037559 5.8014891e-39
0.097656623 0.10719669 1.2034887 5.7103683e-39
0.10285027 0.10680933 1.2034367 6.2610156e-39
0.10754229 0.10686461 1.2037286 7.179725e-39
0.11233731 0.10670446 1.2038875 7.9154796e-39
0.11705019 0.10637475 1.2039136 8.3750116e-39
0.12238866 0.10592286 1.2039139 8.1902616e-39
0.12672535 0.10578852 1.2041205 8.558677e-39
0.13262191 0.10547032 1.2045305 6.9971148e-39
0.052016526 0.11004657 1.2046032 6.1691702e-39
0.058068018 0.11011665 1.2045584 6.8109243e-39
0.062757552 0.11017916 1.2046964 7.636376e-39
0.0670112 0.11015394 1.2048278 6.537594e-39
0.14409107 -0.035423893 1.2078925 1.8529861e-38
0.14658567 -0.036141984 1.2080929 1.7698307e-38
0.14341246 -0.031692296 1.206239 1.6775633e-38
0.14806032 -0.031087011 1.209603 1.6868551e-38
0.13904087 -0.026831195 1.2053496 1.6497605e-38
0.14309973 -0.027359275 1.2069732 1.6406852e-38
0.14676516 -0.0267608 1.2093558 1.6684162e-38
0.12992238 -0.020252371 1.2051867 1.6500839e-38
0.13292211 -0.0212395 1.2054973 1.7053662e-38
0.1377427 -0.02213181 1.2063501 1.6406849e-38
0.14264897 -0.022809245 1.2079836 1.6222461e-38
0.1450174 -0.02096938 1.2095437 1.6406488e-38
0.11870553 -0.015865687 1.2050813 1.6961464e-38
0.12258139 -0.016223075 1.2054605 1.7146572e-38
0.12753688 -0.017208531 1.2059371 1.7054018e-38
0.13231815 -0.018024497 1.2065002 1.6776711e-38
0.13745306 -0.017548814 1.2079093 1.6499402e-38
0.14231552 -0.017905034 1.2093945 1.6222457e-38
0.11323995 -0.011537053 1.2052805 1.7054734e-38
0.11773382 -0.012388458 1.2057606 1.7055093e-38
0.12276945 -0.012626093 1.2065797 1.7147291e-38
0.12739931 -0.012828046 1.2074143 1.7055097e-38
0.13233216 -0.012170278 1.2086389 1.6685594e-38
0.13693056 -0.013469905 1.209214 1.6499763e-38
0.14074922 -0.014234391 1.2097354 1.6129541e-38
0.10897354 -0.0070566926 1.2052093 1.7147646e-38
0.11259593 -0.0073223235 1.2056773 1.7147286e-38
0.11728926 -0.007688269 1.2066453 1.7147287e-38
0.1221775 -0.007472293 1.2077076 1.7055456e-38
0.12777022 -0.0075170649 1.2090155 1.696362e-38
0.13118649 -0.0083820634 1.2095774 1.7055097e-38
0.10822842 -0.0024765343 1.2052381 1.7148007e-38
0.1125126 -0.0023965114 1.2060748 1.677779e-38
0.11715949 -0.0020334974 1.2073514 1.6777431e-38
0.12223302 -0.0025168133 1.2087059 1.6871067e-38
0.12632728 -0.00338388 1.2096292 1.6871786e-38
0.067184947 0.004532062 1.2061529 1.4179704e-38
0.070093177 0.0044688997 1.206659 1.3349597e-38
0.10852847 0.0026220887 1.2053289 1.6132065e-38
0.11244747 0.0023886149 1.2064896 1.6315375e-38
0.11740861 0.0026771622 1.2082218 1.6499767e-38
0.12198472 0.0017177499 1.2095504 1.6591964e-38
0.063851714 0.0066392296 1.2091757 1.3349597e-38
0.067885526 0.0090316366 1.207509 1.2522e-38
0.073439956 0.0074954536 1.2065213 1.2706752e-38
0.078145206 0.0083363242 1.2064317 1.2892226e-38
0.082343452 0.0076830983 1.2054099 1.2987308e-38
0.086092047 0.0092572011 1.2055235 1.2529206e-38
0.10434301 0.0094095245 1.2054631 1.5486332e-38
0.10788228 0.0074528339 1.2059159 1.5854397e-38
0.11231788 0.0073863277 1.207569 1.603843e-38
0.11663931 0.0072103115 1.2091204 1.6038433e-38
0.12016662 0.0063567413 1.2098956 1.6037355e-38
0.072174944 0.010807109 1.2086567 1.2429806e-38
0.077785887 0.012397377 1.2089263 1.2343382e-38
0.082420334 0.012226358 1.2075701 1.2622492e-38
0.087854885 0.012215829 1.205915 1.3271827e-38
0.093820199 0.013628078 1.2056239 1.3644212e-38
0.097701579 0.013647196 1.2053759 1.4472536e-38
0.10266271 0.013099669 1.2059486 1.5024995e-38
0.10730363 0.012503657 1.2073021 1.5393062e-38
0.11194663 0.011799011 1.2088424 1.5577093e-38
0.11538015 0.010484424 1.2098138 1.6313226e-38
0.084179297 0.016277274 1.2091911 1.3552014e-38
0.08790952 0.016949572 1.2083398 1.3458377e-38
0.093023591 0.017115636 1.2070086 1.3919723e-38
0.097993568 0.017778734 1.2071695 1.4380342e-38
0.10270369 0.01756642 1.207899 1.447218e-38
0.10682861 0.017272649 1.2090641 1.4840244e-38
0.089440972 0.020336024 1.2094803 1.3183232e-38
0.093031362 0.021132732 1.2089647 1.4288864e-38
0.098002158 0.021933328 1.209206 1.4380342e-38
0.101963 0.021153139 1.2093363 1.4471822e-38
0.061624408 0.026625436 1.2096955 9.5872315e-39
0.08145082 0.029261779 1.2089273 1.2816597e-38
0.094273522 0.033679891 1.20903 1.2626474e-38
0.078227691 0.041145328 1.2082945 9.8663267e-39
0.1096449 0.044722226 1.2077954 6.4537347e-39
0.11330491 0.043897726 1.2077012 7.0983895e-39
0.11827233 0.04343719 1.2077217 7.0983895e-39
0.12239768 0.043899219 1.2082139 7.4664517e-39
0.15418273 0.041386403 1.2093333 8.3058505e-39
0.019281941 0.049577128 1.2091603 8.9328896e-39
0.022466488 0.049346119 1.2080179 7.8294357e-39
0.028116642 0.048870862 1.2073635 7.0969153e-39
0.033315912 0.048625454 1.2072542 7.3734966e-39
0.03838082 0.048800759 1.2070742 7.8337405e-39
0.043262839 0.049144618 1.2073669 8.0202771e-39
0.048445784 0.049350861 1.2082108 8.5755907e-39
0.053184368 0.04960021 1.2088351 8.9457997e-39
0.057855919 0.049664401 1.2093104 7.7465587e-39
0.062961526 0.049421541 1.2097235 6.6359386e-39
0.067789838 0.048807949 1.20934 7.2802122e-39
0.07240282 0.048926312 1.2094728 7.374577e-39
0.07681071 0.048275184 1.2092227 7.4674803e-39
0.08198633 0.048502661 1.2093112 7.9302605e-39
0.087814204 0.048383605 1.209038 7.5618325e-39
0.09298481 0.049075127 1.2088469 7.3785048e-39
0.097846068 0.048411585 1.2082344 8.1149727e-39
0.10135758 0.047774684 1.2076678 7.3727511e-39
0.10588764 0.047332257 1.2067614 6.3553846e-39
0.11092184 0.046426162 1.2063693 6.2642764e-39
0.11644932 0.045483306 1.205449 6.9139884e-39
0.1320045 0.048021421 1.2056333 1.2246129e-38
0.13780449 0.048334274 1.2073188 1.1969903e-38
0.1430217 0.048755448 1.2079332 1.0771006e-38
0.14760625 0.048623569 1.2091413 1.0772087e-38
0.0039556981 0.053786501 1.2077293 1.3717277e-38
0.0078611951 0.052955549 1.2071542 1.3073705e-38
0.012390432 0.051722426 1.2075124 1.1141229e-38
0.01652457 0.050857242 1.2069218 9.6690014e-39
0.022188844 0.050266784 1.2058945 8.8428477e-39
0.047961697 0.0503272 1.2064193 8.1157027e-39
0.053002093 0.051259574 1.2063462 8.2075312e-39
0.057971947 0.051595945 1.2067728 7.9287919e-39
0.062715538 0.05180528 1.2070222 7.4660271e-39
0.06713476 0.052258167 1.2066218 6.8196053e-39
0.072154507 0.052145228 1.2068379 7.0954776e-39
0.077274762 0.052478999 1.2066474 7.0032721e-39
0.082511015 0.052329689 1.2067446 6.3600635e-39
0.08717864 0.052554935 1.2064171 6.2689427e-39
0.092268303 0.051899802 1.2066989 6.3640026e-39
0.096781388 0.051386945 1.2061547 6.2707308e-39
0.10202493 0.050248522 1.205091 7.4685369e-39
0.14254844 0.050300822 1.2060862 1.2614185e-38
0.14773314 0.051039957 1.2066389 1.0127803e-38
0.15255588 0.051514141 1.2072207 8.1095875e-39
0.15737596 0.052585214 1.2070413 8.0206274e-39
0.16256924 0.052880224 1.2077166 7.9287905e-39
0.16766889 0.053423196 1.207904 8.2028635e-39
0.17247368 0.053829934 1.2079382 7.9251962e-39
0.17757078 0.054052867 1.2080872 8.2900201e-39
0.18249506 0.054385781 1.2081653 9.7615348e-39
0.18758266 0.0546235 1.2084726 9.7611761e-39
0.19199193 0.054723699 1.2089365 9.7611718e-39
0.19789355 0.054537904 1.2098635 6.4533312e-39
0.0032594732 0.055122264 1.2055765 1.2705999e-38
0.16791956 0.055286124 1.2055302 7.1883542e-39
0.17238943 0.055532366 1.2056867 6.7259468e-39
0.17707394 0.055919822 1.2057712 6.3596768e-39
0.18200669 0.055806089 1.2064761 7.1847669e-39
0.18727593 0.05575579 1.2070533 8.1063435e-39
0.19291024 0.056087349 1.2073148 8.2885837e-39
0.19785203 0.056687903 1.2072519 7.0922196e-39
0.20289156 0.057329863 1.2073082 6.818155e-39
0.2077921 0.057625104 1.2076912 6.4500956e-39
0.21265633 0.058279369 1.2079345 6.5412094e-39
0.21735552 0.058437627 1.2090157 5.8929743e-39
0.20793894 0.060222667 1.2050614 6.2631918e-39
0.21297114 0.061310899 1.2055357 5.7118201e-39
0.21762364 0.062273972 1.2062267 5.9866049e-39
0.22156018 0.06173937 1.2082011 5.9862489e-39
0.22509681 0.063808367 1.2094066 5.618544e-39
0.21915947 0.065095335 1.2057534 5.618544e-39
0.22226717 0.066527605 1.2061805 5.7092991e-39
0.22285818 0.073186286 1.2060121 5.4319878e-39
0.21941258 0.079798408 1.2053645 6.0852213e-39
0.22285233 0.078358762 1.2070482 6.2602939e-39
0.22580624 0.077336967 1.2093234 6.3514119e-39
0.2184229 0.083378911 1.2063273 6.0812794e-39
0.22186014 0.081877097 1.2074884 6.2606512e-39
0.0030183708 0.08991833 1.2054236 1.0680963e-38
0.20864463 0.089864202 1.2050817 5.5363621e-39
0.2128374 0.088499859 1.2061622 5.8979657e-39
0.21717271 0.087515093 1.2077742 6.0791298e-39
0.22118154 0.085432962 1.2093024 6.0784123e-39
0.0048420788 0.093345702 1.206515 1.1140148e-38
0.0087434724 0.094501309 1.2056909 8.1917176e-39
0.19884863 0.094557628 1.2051589 5.0693023e-39
0.20321298 0.093541488 1.2055683 5.3455206e-39
0.20746638 0.092785373 1.2064136 5.7142948e-39
0.2122256 0.092762858 1.2082812 5.99016e-39
0.21532463 0.091718167 1.2094461 6.0801976e-39
0.0080232238 0.09724576 1.2076607 1.0588053e-38
0.01247324 0.097906359 1.2058822 8.653046e-39
0.1628774 0.0997862 1.2050422 9.572089e-39
0.16821995 0.099166155 1.2050457 9.1111263e-39
0.17224884 0.099288389 1.2052536 6.9953394e-39
0.17717811 0.099472955 1.2055569 6.0755565e-39
0.1826461 0.099379085 1.2057127 5.4334269e-39
0.18730396 0.098594539 1.2056302 5.9851517e-39
0.19251646 0.098168068 1.2058189 5.3423019e-39
0.1971629 0.097399443 1.206126 5.2508195e-39
0.20233557 0.097123012 1.2070761 5.4384309e-39
0.20729099 0.096932746 1.2085786 5.8064876e-39
0.2114094 0.095568962 1.2094903 5.9855007e-39
0.012903198 0.1021955 1.2083933 8.4693722e-39
0.017211415 0.10263997 1.206517 6.9053032e-39
0.021859795 0.10391355 1.2054611 5.8936792e-39
0.14320688 0.10447295 1.2055295 6.5415289e-39
0.14819592 0.10344189 1.2056854 6.6297799e-39
0.15263753 0.10296989 1.2058527 6.8130921e-39
0.15746997 0.10253159 1.2059516 7.640685e-39
0.16234609 0.10227682 1.2060597 8.0083857e-39
0.16733488 0.10233701 1.2062998 7.455942e-39
0.17278701 0.10269181 1.2066562 6.5354416e-39
0.17789143 0.10232465 1.206679 5.8004073e-39
0.18267326 0.10277644 1.2070099 5.8007689e-39
0.18803973 0.10293718 1.2073765 5.6178125e-39
0.19265829 0.10252725 1.2076566 5.3423033e-39
0.19763128 0.10251677 1.2085348 5.3440927e-39
0.20208959 0.10136802 1.2091815 5.4373547e-39
0.018395558 0.10718655 1.2087755 6.9042214e-39
0.022070708 0.10751225 1.207512 6.1677465e-39
0.026912019 0.10801797 1.206357 5.5252568e-39
0.031649601 0.1091808 1.2059855 5.8933092e-39
0.036677651 0.10957532 1.2054542 6.1706108e-39
0.082998097 0.1099562 1.2051284 7.4520001e-39
0.10825661 0.10985591 1.2058877 6.5340053e-39
0.11243371 0.10960869 1.205905 7.3633932e-39
0.1172444 0.10917629 1.2058259 7.2711962e-39
0.1222965 0.10891016 1.2058682 6.9031382e-39
0.12729821 0.10870453 1.2060274 6.9956897e-39
0.13221492 0.10793151 1.2060084 6.4461145e-39
0.13751997 0.10699671 1.206139 6.3567887e-39
0.14230677 0.10741093 1.2070128 6.4482655e-39
0.14745896 0.10762913 1.2076247 6.6308561e-39
0.1526362 0.10720218 1.2078058 6.9049276e-39
0.15744941 0.10766807 1.2082335 8.100217e-39
0.16255596 0.10768784 1.2084165 8.0076668e-39
0.16767421 0.10808906 1.2087196 8.098073e-39
0.17277807 0.10781427 1.2087216 7.6374718e-39
0.1780168 0.10800423 1.2088809 6.535813e-39
0.18302311 0.10769741 1.2088734 6.53545e-39
0.18815453 0.10734346 1.2091132 5.8004059e-39
0.19244407 0.10671648 1.2094268 5.4341388e-39
0.19683909 0.1057131 1.209801 5.3433668e-39
0.02421562 0.1116316 1.2091626 6.1684542e-39
0.027875736 0.11247391 1.2086232 6.7205462e-39
0.032606427 0.1124839 1.2077007 5.8929477e-39
0.037516702 0.11200041 1.2067434 6.1688143e-39
0.042504262 0.11255076 1.2065487 6.9960498e-39
0.047469564 0.11271139 1.206301 7.1800754e-39
0.05261983 0.11325708 1.2063725 7.4555791e-39
0.057541043 0.11345915 1.2064149 7.1786348e-39
0.062374938 0.11348847 1.2065051 6.6279862e-39
0.067096576 0.11314914 1.2065096 6.906008e-39
0.071858808 0.11297604 1.2066063 6.9992784e-39
0.076974355 0.11269487 1.206602 6.8148928e-39
0.08195255 0.11263613 1.2066681 6.7209077e-39
0.086858273 0.11249022 1.2066572 6.6272827e-39
0.091440104 0.11263601 1.2069229 6.994266e-39
0.097183056 0.11251066 1.2070835 6.8109509e-39
0.10257318 0.1125975 1.2074424 6.5347242e-39
0.10776174 0.11277705 1.2078395 6.5354416e-39
0.1128327 0.11279393 1.2081134 7.0875294e-39
0.11786992 0.11263237 1.2081957 7.6392542e-39
0.12257649 0.11247195 1.2082698 7.54706e-39
0.12763891 0.11255939 1.2086041 6.7201888e-39
0.13233428 0.11239699 1.2088351 6.5375954e-39
0.1371872 0.11181618 1.2089144 6.6315819e-39
0.14213249 0.11169261 1.2092896 6.6305029e-39
0.14690402 0.11126753 1.2094135 6.8138152e-39
0.15178752 0.1109971 1.2095568 7.2708333e-39
0.15733859 0.11084293 1.2096388 7.9158369e-39
0.16034269 0.11069586 1.2096541 6.6261995e-39
0.16749898 0.11049365 1.2096493 7.4530917e-39
0.1729043 0.11057072 1.2097514 7.3623338e-39
0.17839138 0.11089116 1.2099087 7.6367543e-39
0.029385641 0.11540521 1.2098478 8.2842537e-39
0.033595532 0.11586414 1.2093477 8.3760878e-39
0.038284954 0.1164806 1.2091156 7.2719109e-39
0.042917721 0.11708486 1.2090144 8.1909833e-39
0.047739077 0.11744548 1.2089411 8.3757277e-39
0.052607067 0.11777312 1.2089976 8.6508712e-39
0.057812404 0.11814414 1.2092185 8.4657653e-39
0.062444121 0.11815996 1.2093804 8.8334688e-39
0.067059584 0.11794828 1.2094707 8.8352653e-39
0.071892254 0.11753877 1.2094481 8.8363443e-39
0.076803796 0.11717212 1.209406 8.4686464e-39
0.081807002 0.11688206 1.2093371 7.7314555e-39
0.086726345 0.11657627 1.2092823 7.5467125e-39
0.091891915 0.11593384 1.2090912 7.1790146e-39
0.097518086 0.11580857 1.2093462 9.017507e-39
0.10174926 0.11615729 1.2097737 8.097015e-39
0.10672344 0.1157359 1.2099874 1.4901419e-38
0.11400945 0.11544311 1.2099313 9.6617876e-39
0.15221985 -0.045187142 1.2141056 1.8529861e-38
0.14886144 -0.040445596 1.2107105 1.7975247e-38
0.15148687 -0.040700782 1.2134814 1.8529864e-38
0.14882514 -0.035688274 1.2104254 1.742172e-38
0.15169321 -0.035871722 1.2134753 1.8160726e-38
0.14830783 -0.031074569 1.2107754 1.7516079e-38
0.15155999 -0.031076929 1.2131771 1.7700112e-38
0.14811727 -0.026052687 1.2104182 1.6406849e-38
0.15159661 -0.02640442 1.2132088 1.714694e-38
0.14726445 -0.021937704 1.210624 1.6315375e-38
0.15128715 -0.021808591 1.213155 1.6685961e-38
0.14415461 -0.015255505 1.210835 1.6314648e-38
0.14718373 -0.017511763 1.2114941 1.6223178e-38
0.15132491 -0.017031817 1.2137089 1.6224619e-38
0.13480303 -0.010284716 1.2100418 1.714837e-38
0.13818114 -0.010872385 1.2104678 1.6593041e-38
0.14240843 -0.012401434 1.2110177 1.631465e-38
0.14750114 -0.012575808 1.2127199 1.613062e-38
0.15124111 -0.012259359 1.2143207 1.6315733e-38
0.13309343 -0.0070301327 1.2104748 1.6686312e-38
0.1375045 -0.0073935948 1.2113891 1.6408284e-38
0.14265193 -0.0070371823 1.2126731 1.6223533e-38
0.14757666 -0.0076642125 1.2137592 1.6037705e-38
0.15108505 -0.008180704 1.2148267 1.6593755e-38
0.12780254 -0.0020864895 1.2104764 1.677923e-38
0.13253337 -0.002380718 1.2117157 1.6779228e-38
0.13772435 -0.0025956607 1.2129731 1.6500842e-38
0.14262342 -0.0023717848 1.2140085 1.6130257e-38
0.14744841 -0.0032502126 1.2145555 1.5853674e-38
0.12341159 0.0036237363 1.2106371 1.6593403e-38
0.12751608 0.0022621942 1.2115748 1.668488e-38
0.13233215 0.0027613447 1.2133152 1.6686316e-38
0.13706321 0.0017523603 1.2142924 1.6223895e-38
0.14085953 0.00052854267 1.2147688 1.6409361e-38
0.11888465 0.0090541067 1.2106708 1.5945158e-38
0.12220317 0.007495515 1.2114407 1.6222105e-38
0.12735836 0.0075812475 1.2134838 1.6315381e-38
0.1310818 0.0060330983 1.2141678 1.6500484e-38
0.067533463 0.013167868 1.2112737 1.068458e-38
0.072933912 0.013495443 1.2109551 1.1976033e-38
0.077493891 0.013839647 1.2105772 8.7542338e-39
0.11400518 0.013304277 1.2105836 1.5576017e-38
0.11739697 0.012573039 1.2115911 1.5852962e-38
0.12193468 0.012250688 1.2134742 1.5945159e-38
0.12581581 0.011281124 1.2145447 1.6129549e-38
0.061989572 0.016680047 1.2112236 9.7651403e-39
0.068567544 0.017346524 1.2125483 1.0224312e-38
0.073055729 0.017142955 1.2125583 1.0780378e-38
0.077607848 0.017758179 1.2123736 1.1613017e-38
0.082204729 0.017556258 1.2109854 1.2166195e-38
0.08610779 0.019322127 1.2105312 1.2999913e-38
0.10848488 0.01870665 1.2105908 1.456366e-38
0.11242153 0.017389799 1.211586 1.5116113e-38
0.1172115 0.016882986 1.2136379 1.5391984e-38
0.12089605 0.015897935 1.2145544 1.5576014e-38
0.061579674 0.020660201 1.210394 7.6507533e-39
0.06758146 0.021176124 1.2130381 1.0046047e-38
0.072788626 0.022512073 1.2143382 1.1337872e-38
0.077647269 0.022638349 1.2139633 1.2907355e-38
0.082449183 0.022203738 1.2130021 1.2999197e-38
0.087248087 0.022452146 1.2114328 1.3460177e-38
0.092608012 0.023339666 1.2105821 1.3736047e-38
0.097910628 0.023584653 1.2103307 1.4011917e-38
0.1029667 0.023632586 1.2109394 1.4288148e-38
0.10750401 0.022462113 1.2118021 1.4471464e-38
0.11204874 0.022423675 1.2136612 1.4563301e-38
0.11636792 0.020543233 1.2148386 1.4471107e-38
0.066413701 0.027052404 1.2141579 1.1525859e-38
0.078052275 0.025513707 1.2141457 1.3737842e-38
0.082421772 0.027102817 1.2136594 1.2907004e-38
0.087298267 0.027079105 1.2134196 1.3644208e-38
0.09270709 0.027208034 1.2122428 1.3734971e-38
0.097660519 0.027460808 1.2119738 1.3919004e-38
0.10249947 0.02783929 1.2126052 1.4103039e-38
0.10719538 0.027597472 1.213362 1.410304e-38
0.11148823 0.029125314 1.213521 1.3458389e-38
0.076734938 0.033837587 1.2137015 1.0141853e-38
0.081749804 0.032176886 1.2134699 1.2816597e-38
0.088123426 0.031914487 1.2141013 1.2997046e-38
0.092310235 0.031682134 1.2140608 1.336547e-38
0.097816609 0.032554518 1.2139367 1.3364754e-38
0.10221087 0.03208429 1.2135409 1.2534999e-38
0.1075572 0.031862609 1.2138783 1.1521568e-38
0.1507123 0.033272009 1.214448 1.0864298e-38
0.15797895 0.033281926 1.2132331 1.3268246e-38
0.069543682 0.038304202 1.2147903 1.281913e-38
0.074424975 0.036911126 1.2142091 1.281913e-38
0.076604366 0.036992926 1.2133968 1.1526581e-38
0.084256425 0.03811992 1.2120509 1.2816611e-38
0.089108497 0.036993746 1.2127693 1.281553e-38
0.093944028 0.036609367 1.2123418 1.2719023e-38
0.098932058 0.035905115 1.2138646 1.2626474e-38
0.10413375 0.03600163 1.2148254 9.6776685e-39
0.10659324 0.03544857 1.2145593 1.0046437e-38
0.15691499 0.039084841 1.2129986 1.2626826e-38
0.059515774 0.044399042 1.2127193 6.9078451e-39
0.063253231 0.043908104 1.2134331 7.27878e-39
0.068096258 0.043343186 1.21331 7.2795031e-39
0.072624914 0.043189339 1.2128085 8.2053998e-39
0.077902451 0.043249749 1.2124636 8.7600226e-39
0.082998008 0.044009205 1.2130438 6.5466212e-39
0.087179393 0.043745093 1.2127171 7.2852582e-39
0.091515765 0.043295383 1.2124288 7.0093916e-39
0.096254408 0.044538774 1.2113945 7.9269913e-39
0.10188524 0.041744985 1.2128112 6.3564636e-39
0.10605489 0.042984985 1.2116019 6.3564566e-39
0.11258887 0.041368153 1.212745 6.6352253e-39
0.11724883 0.040566575 1.211745 7.4664517e-39
0.14403558 0.044366561 1.2138884 1.4728555e-38
0.14747524 0.044950709 1.2144908 1.4542732e-38
0.15147805 0.04143367 1.2109102 1.0864298e-38
0.15841499 0.044479124 1.2133642 1.0974852e-38
0.012540869 0.049034405 1.2139304 1.0679544e-38
0.017079184 0.048560437 1.2126402 1.0128535e-38
0.022141032 0.047615305 1.2126127 8.5651888e-39
0.027135637 0.046791866 1.212773 7.7386778e-39
0.033047136 0.046356484 1.2126174 7.4628126e-39
0.038352959 0.046436526 1.2123492 7.8319426e-39
0.04322762 0.046790574 1.2122908 7.9277284e-39
0.048051436 0.047198985 1.2123694 8.2061047e-39
0.053079385 0.047651097 1.212127 8.4837594e-39
0.057777546 0.047516488 1.212206 8.3897701e-39
0.062921308 0.047377516 1.2118987 7.7429742e-39
0.067718342 0.046584323 1.2119603 7.4667572e-39
0.071602345 0.047992699 1.2108729 7.280952e-39
0.077820912 0.047047973 1.2113898 6.7292146e-39
0.083034173 0.047154721 1.2112706 6.2685966e-39
0.08858721 0.04616883 1.2118652 5.9023238e-39
0.092234276 0.046888556 1.2108597 9.0390799e-39
0.11102808 0.045248047 1.2101176 6.4482879e-39
0.11594823 0.046169706 1.2103667 6.4482879e-39
0.13648634 0.046574537 1.2103975 9.8555395e-39
0.14349082 0.047085114 1.210857 1.3900595e-38
0.1477848 0.046969697 1.2118089 9.0282956e-39
0.15226905 0.047913905 1.2114905 8.8475014e-39
0.15766554 0.048245668 1.2121732 8.7610609e-39
0.16253887 0.048570417 1.213197 9.5911845e-39
0.1677036 0.049217001 1.2135727 9.4064387e-39
0.17208192 0.049480051 1.2140546 8.4816154e-39
0.17677554 0.049643587 1.2145431 5.7139668e-39
-0.0015023991 0.054093305 1.2116127 1.3534322e-38
0.002788228 0.052366264 1.2125843 1.307371e-38
0.0070980266 0.051018834 1.2127389 1.2336522e-38
0.011470422 0.050460398 1.2111988 1.2704934e-38
0.15876727 0.05016946 1.2104837 5.717564e-39
0.16370189 0.050244637 1.2112927 9.7752157e-39
0.16788842 0.050912343 1.2113596 9.0369304e-39
0.17301844 0.051182151 1.2117933 9.3996004e-39
0.17755657 0.051376935 1.2120378 9.7647746e-39
0.18229242 0.051507581 1.2123033 1.0865359e-38
0.187747 0.051790059 1.2126324 1.0588772e-38
0.19296071 0.052490026 1.2123466 9.851941e-39
0.19827969 0.05261242 1.2128493 9.2090981e-39
0.20352688 0.053349268 1.2124343 8.0177618e-39
0.20873477 0.053398818 1.2131751 8.3894114e-39
0.21305262 0.053394753 1.2136928 7.650417e-39
0.21801856 0.054278351 1.2138966 8.0188338e-39
0.20894572 0.055117436 1.2110195 8.1146181e-39
0.21310931 0.055755984 1.2109189 7.8358816e-39
0.21763256 0.056251023 1.2113729 6.5415681e-39
0.22204229 0.058551632 1.2110314 6.3560993e-39
0.22719224 0.079427123 1.2117084 5.4312717e-39
0.22388917 0.08485914 1.2109766 6.0784152e-39
0.22701426 0.082868233 1.2116444 7.1818718e-39
0.21968967 0.08889924 1.2105708 6.1698877e-39
0.22229925 0.087673172 1.2115036 6.6294267e-39
0.22630525 0.087155968 1.2135911 6.7216196e-39
0.21385977 0.094622418 1.2108728 7.7339582e-39
0.21716607 0.092794605 1.21128 6.0798445e-39
0.22198568 0.091933265 1.213834 6.906008e-39
0.2077457 0.099709868 1.2103834 5.4387855e-39
0.21250044 0.098079599 1.2117772 5.9901586e-39
0.21668947 0.096251734 1.2131679 6.0809193e-39
0.00486239 0.10072599 1.2127613 9.4852954e-39
0.0084536569 0.10296255 1.2115464 9.4838661e-39
0.20270422 0.10350256 1.2105139 5.4384365e-39
0.20719637 0.10241225 1.2117212 5.8079253e-39
0.21174599 0.10177491 1.213677 5.900837e-39
0.0082068127 0.10624239 1.2141759 8.6537467e-39
0.012758259 0.1077179 1.2120156 8.4690079e-39
0.016770441 0.10909142 1.210675 6.4425327e-39
0.18876457 0.10958709 1.2101405 5.708569e-39
0.19346972 0.10893308 1.2105602 5.4334157e-39
0.19809426 0.10792707 1.2112719 5.5274036e-39
0.20293061 0.10743375 1.212728 5.621746e-39
0.20732354 0.10656188 1.2142253 5.7164471e-39
0.013646947 0.11192994 1.2141451 9.0232537e-39
0.017502762 0.11298876 1.2126582 8.0998737e-39
0.022421634 0.11338432 1.2107716 7.3641121e-39
0.026159935 0.11449528 1.2102087 5.4316262e-39
0.1424014 0.11428198 1.2107385 6.5411842e-39
0.14737451 0.11336585 1.2105234 6.7205406e-39
0.15258029 0.11273789 1.2103807 7.63925e-39
0.15731774 0.11288188 1.2105546 7.4555748e-39
0.16234981 0.11310232 1.210726 8.5586784e-39
0.1674442 0.1131668 1.2108105 8.4657737e-39
0.17254201 0.11328527 1.2108885 7.9133356e-39
0.17768431 0.11316837 1.2108797 7.6374746e-39
0.18264396 0.11288189 1.210898 7.8218617e-39
0.18767208 0.1123437 1.2111022 6.9027836e-39
0.19280328 0.11243402 1.2120309 6.7183938e-39
0.19721541 0.11247933 1.2132504 6.9978463e-39
0.20126632 0.11139571 1.2141638 5.6167223e-39
0.018373894 0.11633257 1.2142307 8.8356324e-39
0.022630496 0.11766305 1.2131574 8.8349094e-39
0.027490033 0.1177876 1.2116915 9.0196551e-39
0.032893509 0.11833768 1.2108498 8.2831719e-39
0.0378814 0.11900651 1.2105997 8.0995023e-39
0.042805418 0.11959387 1.2105017 8.3746515e-39
0.048206367 0.11970204 1.2102987 8.3768095e-39
0.057450589 0.1193287 1.2100465 7.5467055e-39
0.06244408 0.11907367 1.2100421 7.5467055e-39
0.067127988 0.1187987 1.2100859 1.1040035e-38
0.071928456 0.11870453 1.2102237 8.7434298e-39
0.076812863 0.11867265 1.2104006 9.3855636e-39
0.081449948 0.118468 1.21044 1.0947842e-38
0.086750269 0.11873093 1.2107728 9.1086278e-39
0.091661133 0.11854366 1.2108785 8.832401e-39
0.096774593 0.1186324 1.2112834 9.384486e-39
0.10253268 0.11810762 1.2112914 8.5572491e-39
0.10767023 0.11810749 1.2116277 8.7416389e-39
0.11276536 0.11754028 1.2114683 8.5583281e-39
0.11817418 0.1171883 1.2113935 8.0995121e-39
0.123091 0.11719327 1.2115684 8.3753788e-39
0.12789546 0.11723834 1.2117821 8.0073235e-39
0.13273804 0.11702961 1.2118739 8.376099e-39
0.13763002 0.1167499 1.2119242 7.7328918e-39
0.14221941 0.11685435 1.2121857 8.3757375e-39
0.14723291 0.11704183 1.2124053 9.2937281e-39
0.15239038 0.11706037 1.2124585 9.2015311e-39
0.15726921 0.11720414 1.2125145 9.5692304e-39
0.1623043 0.11704639 1.2124335 9.7529e-39
0.16710401 0.11763217 1.2126871 1.0028771e-38
0.17239036 0.1175512 1.2126067 9.7525553e-39
0.17774124 0.11753073 1.2126101 8.9242421e-39
0.1826957 0.11738818 1.212659 9.5678011e-39
0.18765016 0.11702754 1.2130595 9.1089809e-39
0.19217864 0.11722523 1.2140368 9.8450998e-39
0.19614278 0.11570556 1.2144854 5.7993199e-39
0.023375181 0.12016672 1.2142904 1.0308952e-38
0.027884781 0.1215567 1.213799 1.0582648e-38
0.032784864 0.12235484 1.2132367 1.1592833e-38
0.037612796 0.12242805 1.212623 1.0673762e-38
0.043224595 0.12228248 1.2121179 1.0857794e-38
0.048052352 0.12253579 1.2121528 1.1409165e-38
0.053138006 0.12240694 1.2120689 1.1133298e-38
0.058024965 0.12284825 1.2124928 1.1959457e-38
0.062912442 0.12292092 1.212724 1.177507e-38
0.06752713 0.12248161 1.2126291 1.1500284e-38
0.072015576 0.12218493 1.2126194 1.1777227e-38
0.076970413 0.12220243 1.2127882 1.1776509e-38
0.081947483 0.12232681 1.2130057 1.2235328e-38
0.086887583 0.12255982 1.2133404 1.2419002e-38
0.091884203 0.12232832 1.2134796 1.2878894e-38
0.09692324 0.12235975 1.2138554 1.1591405e-38
0.10219847 0.1218676 1.2139102 1.1223701e-38
0.10760365 0.12165959 1.2141083 1.0304991e-38
0.11276601 0.12129267 1.2140908 1.0030207e-38
0.11772576 0.12101796 1.2140613 1.0582301e-38
0.12313309 0.12098087 1.2141436 9.4788424e-39
0.12808681 0.12124647 1.2144545 9.9380199e-39
0.13279955 0.12115417 1.2145165 9.8465418e-39
0.13765262 0.12097589 1.2145246 1.0122406e-38
0.14277984 0.1208875 1.2145243 9.7536287e-39
0.1474881 0.12087639 1.214498 9.5688773e-39
0.15228377 0.1208929 1.2144271 9.8443824e-39
0.15756819 0.12104103 1.2143761 1.1225141e-38
0.16232413 0.12110762 1.2143271 1.140917e-38
0.16732195 0.12123762 1.2142802 1.1224427e-38
0.17214984 0.1215652 1.2143379 1.1131879e-38
0.17744997 0.12164919 1.2143005 1.2143861e-38
0.18337703 0.12149676 1.2145395 1.1867276e-38
0.18743156 0.12075575 1.2147665 1.0396111e-38
0.033648338 0.12536447 1.2149165 1.2787433e-38
0.038239878 0.12554905 1.2145562 1.3155477e-38
0.043042131 0.12578675 1.2144694 1.2512986e-38
0.048380088 0.12579627 1.2143795 1.2697013e-38
0.053432681 0.12576912 1.2144743 1.3432054e-38
0.058257435 0.12574267 1.2146826 1.3524255e-38
0.071995549 0.12504642 1.2146679 1.4901776e-38
0.076844238 0.12513734 1.2148135 1.5085456e-38
0.15446548 -0.045516163 1.2162971 1.8807167e-38
0.1544812 -0.040516187 1.2162971 1.8807167e-38
0.15670566 -0.040968698 1.2181723 1.8622784e-38
0.15451427 -0.036220592 1.2165554 1.8346202e-38
0.15710813 -0.036208406 1.2187564 1.8530952e-38
0.15434112 -0.031362981 1.216002 1.8438757e-38
0.15665726 -0.031464115 1.2182986 1.8162172e-38
0.15436552 -0.026359778 1.2158258 1.8346923e-38
0.15660179 -0.02694229 1.2180022 1.760936e-38
0.1543193 -0.021936176 1.2156124 1.7517163e-38
0.15706046 -0.022014735 1.2181282 1.7240577e-38
0.15422009 -0.016796758 1.2155837 1.6871793e-38
0.15736221 -0.017162321 1.2180789 1.6871432e-38
0.15387131 -0.012037671 1.2156439 1.6409733e-38
0.15736277 -0.012631161 1.2179724 1.6871789e-38
0.16010594 -0.01047178 1.219843 1.6130973e-38
0.15337758 -0.0073418389 1.2158899 1.6132066e-38
0.15767241 -0.0072224434 1.218051 1.6410092e-38
0.14831363 -0.001867011 1.2154316 1.5760037e-38
0.15263665 -0.0027462002 1.2160763 1.5762203e-38
0.1574682 -0.0023537115 1.2179242 1.6133505e-38
0.16079795 -0.0028160501 1.2197101 1.6225341e-38
0.13837938 0.0038243409 1.215351 1.6409007e-38
0.14282 0.0025356978 1.2157093 1.6038423e-38
0.14725836 0.0026770427 1.2162926 1.585295e-38
0.15253514 0.0020903125 1.2168709 1.5485255e-38
0.15735064 0.0024523414 1.2180622 1.5394139e-38
0.16101576 0.002833585 1.2195042 1.5856917e-38
0.13307333 0.0080016851 1.2156982 1.6316456e-38
0.13756195 0.007540145 1.2167025 1.6039866e-38
0.14188752 0.0076940549 1.2174855 1.5669642e-38
0.14682882 0.007770929 1.2179039 1.5115746e-38
0.15240382 0.0073865824 1.2180963 1.5024994e-38
0.15738948 0.0076043527 1.2187665 1.5210108e-38
0.16006736 0.0092249736 1.2193055 1.5023189e-38
0.12367629 0.014534922 1.215454 1.6036638e-38
0.12773965 0.012580465 1.216203 1.594624e-38
0.13284934 0.012588846 1.2180066 1.5762923e-38
0.13758594 0.011937112 1.2187692 1.5578169e-38
0.14260089 0.011528842 1.2192078 1.5024632e-38
0.14806966 0.012112266 1.2194909 1.4564375e-38
0.15279943 0.012066073 1.2193676 1.4657292e-38
0.15710899 0.012264276 1.2195557 1.4840963e-38
0.16172943 0.010527409 1.2196486 1.5025354e-38
0.11827844 0.019437116 1.2155572 1.5576017e-38
0.12287257 0.017563608 1.2168726 1.5576377e-38
0.12684022 0.016896499 1.2183945 1.5577457e-38
0.13130215 0.015748847 1.2193478 1.5670006e-38
0.16283655 0.015419083 1.2197167 1.4655134e-38
0.071383663 0.021632304 1.2152342 9.7651403e-39
0.075973853 0.023257041 1.2155701 1.0046416e-38
0.080265015 0.02419476 1.2154753 8.9390034e-39
0.11468087 0.023782274 1.2156472 1.4562947e-38
0.11712579 0.022187581 1.2160565 1.4563304e-38
0.1217708 0.021712415 1.2186177 1.4931729e-38
0.15974605 0.024944955 1.2196046 1.3732459e-38
0.1623939 0.020485386 1.2193239 1.41016e-38
0.067240246 0.026639935 1.2158998 1.1801731e-38
0.072209843 0.027382851 1.2166728 1.1154561e-38
0.07726609 0.027816152 1.2164159 1.2999913e-38
0.08172746 0.027877424 1.2161843 1.2445658e-38
0.11280261 0.028042946 1.2163227 1.3549874e-38
0.1177721 0.026691098 1.2185789 1.4287077e-38
0.14825413 0.027795225 1.2187746 1.0864298e-38
0.15728839 0.027601987 1.2191427 1.2714345e-38
0.16353606 0.028216908 1.2190537 1.3732459e-38
0.067952633 0.031721994 1.2178867 9.4050024e-39
0.073240541 0.033006676 1.218336 1.1525503e-38
0.077936642 0.032814704 1.2182715 1.2170157e-38
0.082294591 0.032569543 1.2172467 1.2999919e-38
0.08730416 0.033088908 1.2166255 1.2628982e-38
0.092033602 0.033743296 1.2161974 1.2260564e-38
0.096926533 0.033225276 1.2154117 1.3734612e-38
0.10143482 0.033861749 1.2152259 1.3641699e-38
0.10769263 0.032632574 1.2157906 1.3734259e-38
0.11208859 0.032782566 1.2175797 1.2536079e-38
0.11604689 0.030818123 1.2187004 1.3826817e-38
0.15099706 0.032820247 1.2194674 1.0864298e-38
0.15645771 0.033899479 1.2174047 1.271758e-38
0.063883379 0.038154777 1.21768 6.633412e-39
0.068781123 0.038710501 1.2172318 7.6486317e-39
0.072383709 0.037277427 1.2175487 9.4035717e-39
0.077141702 0.036175799 1.2177496 9.6790908e-39
0.082368828 0.035711844 1.218961 1.0508493e-38
0.087430954 0.036059592 1.2189724 1.1891422e-38
0.09257704 0.036537208 1.2182808 1.2444235e-38
0.097665042 0.037005693 1.217455 1.3087448e-38
0.10306706 0.03757035 1.2171273 1.2627192e-38
0.1074623 0.037561242 1.218012 1.1705953e-38
0.11235012 0.036561918 1.2187369 1.3274e-38
0.15426058 0.037547734 1.216676 1.013681e-38
0.15721303 0.038948946 1.2178091 1.198361e-38
0.027842334 0.044249535 1.2188935 9.3884783e-39
0.032500148 0.04425171 1.2179685 7.4610105e-39
0.038280018 0.044323444 1.2172595 7.9223446e-39
0.042713188 0.044436362 1.2174923 7.4635272e-39
0.048072271 0.044257395 1.2179384 7.8348181e-39
0.053061947 0.043626726 1.2178129 8.0209932e-39
0.058212716 0.042639852 1.2169236 8.0195554e-39
0.063181892 0.041283228 1.2165202 7.9255704e-39
0.066380091 0.040746063 1.2173743 7.0997627e-39
0.072528489 0.040969495 1.2158577 7.6529617e-39
0.076885819 0.040658005 1.215806 7.2852582e-39
0.08201199 0.040819891 1.2155597 6.9157596e-39
0.086233072 0.040014453 1.2158091 7.0093916e-39
0.1024452 0.041473567 1.2194813 1.0599611e-38
0.105513 0.041654833 1.2185113 6.172815e-39
0.15295334 0.044072125 1.2163924 7.9320289e-39
0.15805997 0.043386795 1.2169552 9.7755856e-39
0.16171889 0.043050434 1.2187558 1.1062367e-38
0.16682708 0.044243939 1.2195717 1.0511717e-38
0.17683704 0.042257663 1.2192667 1.1804261e-38
0.00078333617 0.049662262 1.2185113 1.3258102e-38
0.0073343739 0.04879519 1.2178047 1.2428713e-38
0.011768836 0.047831442 1.2176476 1.1875912e-38
0.016925896 0.046589747 1.217983 9.9430702e-39
0.02183672 0.045780621 1.2177504 8.748141e-39
0.025573749 0.045082048 1.2185819 6.7230993e-39
0.04335095 0.045114629 1.2159619 7.8373348e-39
0.04811129 0.045214608 1.216135 8.022798e-39
0.053114213 0.045109741 1.2160454 8.022798e-39
0.10375769 0.046337795 1.2184303 6.172815e-39
0.15337539 0.045399867 1.2150962 7.0914755e-39
0.15877476 0.046050064 1.2155659 8.3004583e-39
0.1631012 0.046090972 1.2165554 9.867777e-39
0.16777259 0.047134932 1.2164873 1.0328028e-38
0.17288826 0.047714218 1.2171541 1.0510627e-38
0.17792279 0.048124861 1.2175424 1.1518305e-38
0.18197922 0.048563473 1.2172297 1.3624367e-38
0.18735078 0.048739962 1.2179155 1.1968457e-38
0.19212778 0.049050741 1.2182075 1.1323819e-38
0.19747345 0.049214311 1.2185855 9.8555367e-39
0.20262636 0.049370289 1.2188148 9.2141302e-39
0.20753101 0.04940569 1.2193724 8.8475098e-39
0.21208018 0.049689479 1.2195371 8.5727208e-39
0.0028650521 0.05095692 1.2162049 1.3534322e-38
0.19269001 0.050567962 1.215564 9.2076519e-39
0.19712217 0.050568379 1.2160193 9.8551822e-39
0.20304585 0.050943345 1.2160745 9.3084768e-39
0.20781246 0.051096525 1.2165313 8.8503853e-39
0.21330142 0.05131945 1.2171875 9.2209531e-39
0.21768188 0.051733408 1.2176954 8.7581827e-39
0.22365505 0.053653449 1.2169552 9.8655896e-39
0.22617789 0.087741546 1.2161416 7.4566623e-39
0.22358 0.093516216 1.2165315 6.1706094e-39
0.22758797 0.092545986 1.2169516 7.2740661e-39
0.21814938 0.098342769 1.2157159 5.9890894e-39
0.22189048 0.097441584 1.2182434 5.9876545e-39
0.0027099531 0.10402056 1.217309 9.8537192e-39
0.21331121 0.10282864 1.2152913 5.9915949e-39
0.21696512 0.10241976 1.2176049 5.991239e-39
0.22041021 0.100307 1.2191222 6.264956e-39
0.0047595659 0.1092225 1.2191476 9.6696881e-39
0.0069403136 0.10794672 1.2163895 9.3913131e-39
0.20820466 0.10837402 1.215835 5.8997622e-39
0.21218798 0.10736144 1.217589 5.8994049e-39
0.21571106 0.10621453 1.2192736 5.8979713e-39
0.0082562389 0.11227077 1.2183853 9.6668196e-39
0.011782691 0.11281068 1.2159407 9.1125738e-39
0.19995825 0.11405092 1.2150259 4.9735221e-39
0.20221366 0.11358894 1.2158055 7.5502956e-39
0.20744856 0.11275896 1.2180901 6.6326553e-39
0.21101867 0.11117812 1.2192416 6.446476e-39
0.0097595565 0.11564296 1.2194979 1.0311109e-38
0.012941324 0.11714268 1.2179521 9.2047709e-39
0.01669614 0.11820557 1.2162266 9.4806375e-39
0.020241462 0.11915848 1.2150313 8.7420145e-39
0.19333698 0.11941147 1.2154053 1.1131506e-38
0.19771837 0.11757755 1.2160169 8.7423578e-39
0.20256665 0.11728088 1.2180638 8.744513e-39
0.20541182 0.1162477 1.219069 6.1698933e-39
0.013978105 0.12084758 1.219481 1.132022e-38
0.017717864 0.12219326 1.2181101 1.0216042e-38
0.022326088 0.12274296 1.2163551 1.0398985e-38
0.026632328 0.12391151 1.2155632 1.1593915e-38
0.08674825 0.1249804 1.215076 1.444333e-38
0.091054216 0.12473187 1.2151556 1.4351489e-38
0.096568242 0.12453712 1.2153754 1.4534797e-38
0.10146138 0.12428772 1.2155755 1.4534436e-38
0.10690369 0.12428761 1.2159117 1.3891234e-38
0.11253118 0.12424566 1.216102 1.3156554e-38
0.11794344 0.12410451 1.2161407 1.2421517e-38
0.12313872 0.12384005 1.2160991 1.3249113e-38
0.12819743 0.12369113 1.2161187 1.3524978e-38
0.13322917 0.12329043 1.2159579 1.4536242e-38
0.13778345 0.1231795 1.2158351 1.4995057e-38
0.14278689 0.12371494 1.2161245 1.3615373e-38
0.14761363 0.12377483 1.2160264 1.4902504e-38
0.15262644 0.12384056 1.21595 1.361537e-38
0.15751833 0.12406079 1.2159779 1.37994e-38
0.16243295 0.12412405 1.2158896 1.3615369e-38
0.16743109 0.12411077 1.2157173 1.3706846e-38
0.17278136 0.12419924 1.2156419 1.306293e-38
0.17775393 0.12421169 1.2153418 1.4351492e-38
0.18239073 0.12406164 1.2154802 1.398307e-38
0.18795408 0.12300512 1.2158183 1.2602667e-38
0.19284183 0.12237091 1.216745 1.2143131e-38
0.19741216 0.12210473 1.2183359 1.1316619e-38
0.20037298 0.12149601 1.219249 1.1960183e-38
0.019312274 0.12551484 1.2192489 1.0031649e-38
0.023073709 0.12725496 1.2188406 1.1595002e-38
0.02765693 0.12738359 1.2175047 1.2146012e-38
0.031926028 0.12744021 1.2165884 1.2329318e-38
0.037534211 0.12792726 1.2162018 1.2604465e-38
0.042902511 0.12793174 1.2159598 1.2972522e-38
0.048211709 0.12812285 1.2161633 1.3340583e-38
0.053256419 0.12839343 1.2165011 1.2788133e-38
0.058114443 0.12814961 1.2164652 1.2971444e-38
0.062823609 0.12769195 1.2163022 1.3154758e-38
0.06748268 0.12725233 1.2161384 1.3706488e-38
0.072380185 0.12719199 1.2161679 1.3615369e-38
0.077256426 0.12742138 1.2163712 1.3706846e-38
0.082358025 0.12761174 1.2165674 1.3798323e-38
0.087100193 0.12780401 1.2168562 1.3798683e-38
0.091988042 0.12737291 1.2168671 1.3799044e-38
0.096884072 0.12772456 1.2174544 1.3614653e-38
0.10186443 0.12721939 1.2175039 1.3338785e-38
0.10712754 0.12736121 1.217894 1.306364e-38
0.11220662 0.12763263 1.2182584 1.3523899e-38
0.11734082 0.1276785 1.2184105 1.389196e-38
0.12269975 0.12733923 1.2182834 1.3432067e-38
0.12793721 0.12763247 1.2185503 1.3523899e-38
0.1330349 0.127305 1.2184019 1.3432062e-38
0.1381461 0.12739733 1.2184699 1.3707567e-38
0.14308837 0.12765773 1.2185707 1.3983074e-38
0.14796261 0.12763357 1.2184274 1.3706491e-38
0.15284353 0.12777716 1.2183995 1.3798685e-38
0.15765847 0.12781006 1.2182772 1.3707206e-38
0.16235179 0.12780932 1.2180938 1.3799762e-38
0.16718775 0.12760696 1.2177596 1.3983437e-38
0.1720541 0.12759341 1.2175151 1.4075277e-38
0.17728595 0.12725839 1.2171587 1.4167471e-38
0.18246701 0.12744768 1.217536 1.4259302e-38
0.18734391 0.12737285 1.2181892 1.45348e-38
0.19182418 0.12678659 1.2189212 1.4166741e-38
0.19571082 0.12547454 1.2193511 1.4717745e-38
0.027845941 0.13048014 1.2194214 1.269774e-38
0.032591347 0.13123025 1.2190347 1.2881411e-38
0.037319981 0.13166936 1.2188135 1.2972886e-38
0.042608149 0.13165651 1.2186288 1.3065439e-38
0.047976322 0.13147803 1.2186314 1.3249469e-38
0.053237967 0.13181512 1.2190346 1.3524614e-38
0.058223315 0.13160834 1.2190423 1.2971087e-38
0.062934317 0.13142926 1.2190605 1.3890161e-38
0.067749314 0.13093327 1.218768 1.4073832e-38
0.072857685 0.13107382 1.2188749 1.4074192e-38
0.077894412 0.13099641 1.2188094 1.3982715e-38
0.082833089 0.1313218 1.2190232 1.3891238e-38
0.087681875 0.13115115 1.2190582 1.3799404e-38
0.092239074 0.13093424 1.2191836 1.38916e-38
0.096906327 0.13094136 1.2195129 1.3800839e-38
0.10206793 0.13045548 1.219525 1.3616451e-38
0.10614303 0.13016105 1.2195911 1.4260017e-38
0.11126486 0.13041773 1.2199583 1.3889799e-38
