# .PCD v0.7 - Point Cloud Data file format
VERSION 0.7
FIELDS x y z rgb
SIZE 4 4 4 4
TYPE F F F F
COUNT 1 1 1 1
WIDTH 484
HEIGHT 1
VIEWPOINT 0 0 0 1 0 0 0
POINTS 484
DATA ascii
-0.077424072 0.13161229 1.064 1.3351754e-38
-0.066835403 0.13475713 1.064 1.3823938e-38
-0.062599942 0.13475713 1.064 1.3552399e-38
-0.057305604 0.13475713 1.064 1.4291406e-38
-0.053070135 0.13475713 1.064 1.6041681e-38
-0.047775805 0.13475713 1.064 1.7148017e-38
-0.043540332 0.13475713 1.064 1.7794834e-38
-0.077000521 0.13811164 1.064 1.3168821e-38
-0.072129734 0.13790196 1.064 1.3079532e-38
-0.067847155 0.13780402 1.0632501 1.3361883e-38
-0.062511683 0.13770607 1.0625 1.3826106e-38
-0.057224814 0.13770607 1.0625001 1.4656946e-38
-0.052995317 0.13770607 1.0625 1.5303042e-38
-0.047775805 0.13790196 1.0640001 1.5858726e-38
-0.042481467 0.13790196 1.064 1.6690301e-38
-0.039304867 0.13790196 1.064 1.7150563e-38
-0.077000521 0.14188544 1.064 1.3168105e-38
-0.071960762 0.14280604 1.0615001 1.2895142e-38
-0.067702845 0.14273977 1.0610001 1.2992383e-38
-0.062423434 0.14273976 1.061 1.3733545e-38
-0.057144027 0.14273977 1.0610001 1.4657303e-38
-0.052920502 0.14273977 1.0610001 1.5393798e-38
-0.048018049 0.14237139 1.0627143 1.5949487e-38
-0.043540332 0.14209509 1.064 1.6597743e-38
-0.037187133 0.14314336 1.064 1.7335682e-38
-0.075306341 0.14733648 1.064 1.2893332e-38
-0.072129734 0.14838475 1.064 1.2895864e-38
-0.067798555 0.14817704 1.0625001 1.308458e-38
-0.062423434 0.14796638 1.0610001 1.373283e-38
-0.057144023 0.14796638 1.0610001 1.4564031e-38
-0.052920502 0.14796638 1.0610001 1.5301596e-38
-0.047475912 0.14749396 1.0632501 1.6224999e-38
-0.043540332 0.14523992 1.064 1.6688142e-38
-0.075306334 0.1515296 1.064 1.2801858e-38
-0.071776778 0.15222846 1.064 1.2805466e-38
-0.067894265 0.15257788 1.064 1.308494e-38
-0.062542096 0.15243547 1.0630001 1.3640636e-38
-0.057185162 0.15225597 1.0617501 1.4380718e-38
-0.052957162 0.15225597 1.0617501 1.530303e-38
-0.047752358 0.15250668 1.0635002 1.6224992e-38
-0.062070496 0.15677099 1.064 1.3824667e-38
-0.0573056 0.15781927 1.0640001 1.4471836e-38
-0.053070135 0.15781927 1.0640001 1.5301954e-38
-0.04838087 0.15751977 1.0640001 1.6223917e-38
-0.0604822 0.16306067 1.064 1.4194524e-38
-0.057305604 0.16306067 1.064 1.4656221e-38
-0.053070135 0.16306067 1.064 1.539307e-38
-0.049187623 0.1634101 1.064 1.6131718e-38
-0.066835403 0.16830206 1.064 1.3362957e-38
-0.0604822 0.16620551 1.064 1.4285641e-38
-0.057305604 0.16725379 1.064 1.4839173e-38
-0.053070135 0.16620551 1.064 1.5393788e-38
-0.049893536 0.16725379 1.064 1.5673617e-38
-0.067086659 0.13315929 1.0680001 1.3824645e-38
-0.062835276 0.13315931 1.0680001 1.3369438e-38
-0.057521038 0.13315929 1.0680001 1.438612e-38
-0.052206799 0.13315931 1.0680001 1.6871802e-38
-0.046892561 0.13210708 1.0680001 1.8252214e-38
-0.042641174 0.13315929 1.0680001 1.8164703e-38
-0.038389783 0.13315929 1.0680001 1.8165791e-38
-0.077715144 0.13596521 1.0680001 1.3168098e-38
-0.072400898 0.13526373 1.0680001 1.317065e-38
-0.069212355 0.13526373 1.0680001 1.3543756e-38
-0.041578326 0.13526373 1.0680001 1.7520056e-38
-0.03785836 0.13684207 1.0680001 1.7611899e-38
-0.079840831 0.1436815 1.0680001 1.3259928e-38
-0.041578326 0.14262927 1.0680001 1.724132e-38
-0.03874407 0.14227854 1.0680001 1.7335316e-38
-0.077715136 0.14683816 1.0680001 1.307663e-38
-0.042641174 0.14789037 1.0680001 1.6781056e-38
-0.038389783 0.14683816 1.0680001 1.7059087e-38
-0.075589441 0.1542037 1.0680001 1.271074e-38
-0.073463745 0.1542037 1.0680001 1.2713264e-38
-0.042641174 0.15315148 1.0680001 1.6688861e-38
-0.075589441 0.15630813 1.0680001 1.2527786e-38
-0.072400898 0.15630813 1.0680001 1.2530673e-38
-0.067795232 0.1570096 1.0680001 1.2994179e-38
-0.062835276 0.15841258 1.0680001 1.3732111e-38
-0.045829717 0.15841258 1.0680001 1.6410833e-38
-0.04299546 0.1570096 1.0680001 1.6688147e-38
-0.067086659 0.16262147 1.0680001 1.3178569e-38
-0.063898131 0.16262147 1.0680001 1.3639911e-38
-0.046538278 0.16332294 1.0680001 1.6409393e-38
-0.07133805 0.16893478 1.0680001 1.280762e-38
-0.06850379 0.16753182 1.0680001 1.308565e-38
-0.063260414 0.168093 1.0680001 1.382466e-38
-0.053269647 0.16893478 1.0680001 1.5302315e-38
-0.047955409 0.16788256 1.0680001 1.595057e-38
-0.067086659 0.17103922 1.0680001 1.3362599e-38
-0.062835276 0.17103922 1.0680001 1.4007613e-38
-0.05787532 0.1717407 1.0680001 1.4746979e-38
-0.050081104 0.17209144 1.0680001 1.576366e-38
-0.047955409 0.17209144 1.0680001 1.6042405e-38
-0.047955409 0.1752481 1.0680001 1.6132443e-38
-0.077082917 0.12967484 1.074 1.3536517e-38
-0.07280764 0.12967484 1.074 1.2345917e-38
-0.067463554 0.12967484 1.0740001 1.2724443e-38
-0.062119465 0.12967484 1.074 1.4480845e-38
-0.057844192 0.12967484 1.074 1.6414792e-38
-0.052500099 0.12967484 1.0740001 1.8162546e-38
-0.047091637 0.12949374 1.0725 1.8438411e-38
-0.042819351 0.12949374 1.0725 1.8440212e-38
-0.038605459 0.12967484 1.074 1.9084858e-38
-0.080065101 0.13353334 1.0710001 1.325992e-38
-0.075801767 0.13247816 1.0710001 1.3260654e-38
-0.072604269 0.13247816 1.0710001 1.289622e-38
-0.067808025 0.13195057 1.0710001 1.2997049e-38
-0.062031213 0.13160704 1.0725 1.3556355e-38
-0.057764895 0.13160704 1.0725 1.5215164e-38
-0.052353453 0.13142298 1.0710001 1.7516098e-38
-0.042760953 0.13142298 1.0710001 1.8256542e-38
-0.038497619 0.13142298 1.0710001 1.8626405e-38
-0.080065101 0.13564369 1.0710001 1.3259925e-38
-0.035300121 0.13775404 1.0710001 1.7795933e-38
-0.033168457 0.13986439 1.0710001 1.7612618e-38
-0.082196765 0.14408509 1.0710001 1.3259561e-38
-0.035300121 0.14302993 1.0710001 1.7428231e-38
-0.033261366 0.14237241 1.074 1.7520423e-38
-0.081908584 0.1477109 1.0728 1.3075537e-38
-0.035349563 0.14745831 1.0725 1.7244202e-38
-0.086702287 0.15083747 1.074 1.3165572e-38
-0.080289371 0.15083747 1.074 1.2892233e-38
-0.078151733 0.1518956 1.074 1.2801126e-38
-0.041695118 0.15041615 1.0710001 1.6873611e-38
-0.038054962 0.15258753 1.0714287 1.7059085e-38
-0.032192547 0.15295373 1.074 1.7244918e-38
-0.077439189 0.15718625 1.0740001 1.2526343e-38
-0.072604269 0.15885755 1.0710001 1.2529597e-38
-0.06940677 0.15885755 1.0710001 1.2809066e-38
-0.041695118 0.15885755 1.0710001 1.6780703e-38
-0.038497619 0.15780239 1.0710001 1.7058724e-38
-0.077082917 0.16247693 1.074 1.2433435e-38
-0.072604269 0.16202308 1.0710001 1.2529597e-38
-0.06940677 0.1620231 1.0710001 1.2901259e-38
-0.045958452 0.16096792 1.0710001 1.6411551e-38
-0.042819351 0.16225001 1.0725 1.6688142e-38
-0.038605459 0.16247693 1.074 1.7058362e-38
-0.076548509 0.16723852 1.074 1.2617467e-38
-0.072817437 0.1668769 1.0710001 1.2622506e-38
-0.06940677 0.16518861 1.0710001 1.2994171e-38
-0.045958452 0.16835414 1.0710001 1.6319714e-38
-0.04283981 0.16761236 1.073 1.6688857e-38
-0.038797058 0.1672518 1.0734 1.7149113e-38
-0.072707452 0.17281653 1.0725 1.2532835e-38
-0.067808025 0.17310244 1.0710001 1.3178209e-38
-0.062301226 0.17292657 1.0710001 1.409981e-38
-0.056616779 0.17363001 1.0710001 1.4840255e-38
-0.053419285 0.17257483 1.0710001 1.5210122e-38
-0.045958452 0.17257485 1.0710001 1.6320071e-38
-0.043196082 0.17324883 1.073 1.6779254e-38
-0.038605459 0.17411637 1.074 1.7240951e-38
-0.072451368 0.17693806 1.0740001 1.2624315e-38
-0.067463547 0.17729077 1.074 1.3361883e-38
-0.061945952 0.17785072 1.0710001 1.4100889e-38
-0.05789578 0.17742865 1.0710001 1.4655502e-38
-0.05206988 0.17731895 1.0714287 1.5487425e-38
-0.047056466 0.17797527 1.07175 1.6225353e-38
-0.04285004 0.1771677 1.0732499 1.677817e-38
-0.038605459 0.17623264 1.074 1.7057642e-38
-0.07280764 0.18046516 1.074 1.262323e-38
-0.067158177 0.18258144 1.074 1.3454078e-38
-0.062119465 0.18363956 1.074 1.4192725e-38
-0.057630427 0.18300468 1.074 1.4839175e-38
-0.052749716 0.1827822 1.073625 1.5486701e-38
-0.046915304 0.18290268 1.0734 1.6225711e-38
-0.042880729 0.18258142 1.074 1.6596298e-38
-0.039674275 0.18469769 1.074 1.6967244e-38
-0.067463547 0.18808371 1.074 1.3453718e-38
-0.062119469 0.18787208 1.074 1.4284916e-38
-0.057844192 0.18787208 1.074 1.4839172e-38
-0.052500099 0.1878721 1.074 1.5670372e-38
-0.048224822 0.18787208 1.074 1.6315741e-38
-0.043949548 0.18681395 1.074 1.6686337e-38
-0.065325916 0.19210461 1.074 1.3822856e-38
-0.062119469 0.19210461 1.074 1.428527e-38
-0.057844192 0.19210461 1.074 1.493064e-38
-0.052500099 0.19210462 1.074 1.567002e-38
-0.048224822 0.19210461 1.074 1.6315755e-38
-0.061585054 0.1968662 1.074 1.4469305e-38
-0.057844192 0.19633713 1.074 1.4930646e-38
-0.052805472 0.19679064 1.074 1.55771e-38
-0.048224822 0.19633713 1.074 1.6315038e-38
-0.076297209 0.1269716 1.0780001 1.3444684e-38
-0.072006017 0.12803367 1.0780001 1.1429727e-38
-0.052695625 0.12803367 1.0780001 1.908629e-38
-0.038749237 0.12803367 1.0780001 1.9177406e-38
-0.035530839 0.13121989 1.0780001 1.9361805e-38
-0.08702521 0.14715098 1.0780001 1.3258478e-38
-0.084879607 0.14715098 1.0780001 1.3258841e-38
-0.088098004 0.15352342 1.0780001 1.3165213e-38
-0.083163127 0.15267377 1.0780001 1.2982984e-38
-0.035530839 0.15139927 1.0780001 1.7243845e-38
-0.088098004 0.15777171 1.0780001 1.2981895e-38
-0.082120985 0.15746826 1.0780001 1.2708198e-38
-0.078442812 0.15989585 1.0780001 1.2525981e-38
-0.035530843 0.15777171 1.0780001 1.7153082e-38
-0.032527 0.15734689 1.0780001 1.7244917e-38
-0.088098004 0.16308206 1.0780001 1.2707108e-38
-0.081661209 0.16308206 1.0780001 1.2707845e-38
-0.035530839 0.16308206 1.0780001 1.7336391e-38
-0.032312442 0.16308206 1.0780001 1.7428588e-38
-0.029094046 0.16308206 1.0780001 1.7704815e-38
-0.087025203 0.16733035 1.0780001 1.2707115e-38
-0.082734004 0.16733035 1.0780001 1.2706768e-38
-0.078442812 0.16839242 1.0780001 1.2799697e-38
-0.087025203 0.17051657 1.0780001 1.2706757e-38
-0.082197607 0.1710476 1.0780001 1.2614933e-38
-0.07758458 0.17306554 1.0780001 1.2434868e-38
-0.041967634 0.17264071 1.0780001 1.6963647e-38
-0.038391639 0.17193267 1.0780001 1.724167e-38
-0.07737001 0.17795107 1.0780001 1.2435589e-38
-0.074151613 0.17901315 1.0780001 1.2529957e-38
-0.038749237 0.17901315 1.0780001 1.7058362e-38
-0.076297209 0.18219936 1.0780001 1.2436675e-38
-0.073078811 0.18326144 1.0780001 1.2625025e-38
-0.068787619 0.18326144 1.0780001 1.317821e-38
-0.038749237 0.18219937 1.0780001 1.6967247e-38
-0.076297209 0.18644765 1.0780001 1.2528514e-38
-0.073078811 0.18750972 1.0780001 1.2715427e-38
-0.067714818 0.18750973 1.0780001 1.3453719e-38
-0.04625883 0.18857181 1.0780001 1.6683812e-38
-0.042682838 0.18892583 1.0780001 1.6871449e-38
-0.039106838 0.18750975 1.0780001 1.7058358e-38
-0.073078811 0.1928201 1.0780001 1.2990931e-38
-0.068787619 0.1928201 1.0780001 1.3361158e-38
-0.04625883 0.1928201 1.0780001 1.6684538e-38
-0.043398034 0.19246608 1.0780001 1.6961127e-38
-0.06771481 0.19706839 1.0780001 1.3638102e-38
-0.063423619 0.19813046 1.0780001 1.437603e-38
-0.04625883 0.19706839 1.0780001 1.668382e-38
-0.044113234 0.19600631 1.0780001 1.6869291e-38
-0.066284418 0.20096266 1.0780001 1.4006529e-38
-0.062565379 0.2028036 1.0780001 1.4467874e-38
-0.058059629 0.20237875 1.0780001 1.502249e-38
-0.052389111 0.20237878 1.0780001 1.566966e-38
-0.047546189 0.20195392 1.0780001 1.631611e-38
-0.061993219 0.20733508 1.0780001 1.4285991e-38
-0.05913242 0.20662704 1.0780001 1.493101e-38
-0.054841224 0.20662704 1.0780001 1.548455e-38
-0.052695625 0.22999263 1.0780001 1.5293626e-38
-0.037781287 0.12412985 1.0810001 1.9453983e-38
-0.0722064 0.12711194 1.0810002 1.234953e-38
-0.067186072 0.12767994 1.0810001 1.4478332e-38
-0.062524334 0.12838997 1.0810001 1.7060517e-38
-0.058221199 0.12838997 1.0810001 1.8350529e-38
-0.052842274 0.12838997 1.0810001 1.9177769e-38
-0.04746335 0.12838997 1.0810001 1.9269243e-38
-0.044235997 0.12838997 1.0810001 1.9177406e-38
-0.038857073 0.12625991 1.0810001 1.9361433e-38
-0.091570526 0.14862551 1.0810001 1.3166642e-38
-0.089418955 0.14862551 1.0810001 1.3258478e-38
-0.089418955 0.15182059 1.0810001 1.3257405e-38
-0.08511582 0.15821075 1.0810001 1.2891499e-38
-0.08511582 0.16247088 1.0810001 1.2707473e-38
-0.031326581 0.16034082 1.0810001 1.7520425e-38
-0.029175013 0.16034082 1.0810001 1.7703739e-38
-0.089418955 0.16673099 1.0810001 1.2615635e-38
-0.035629719 0.16779602 1.0810001 1.7335669e-38
-0.033478148 0.16673099 1.0810001 1.7428226e-38
-0.08619161 0.17312115 1.0810001 1.2615281e-38
-0.082964249 0.17312115 1.0810001 1.2707126e-38
-0.08619161 0.17631623 1.0810001 1.2706754e-38
-0.081673317 0.17695525 1.0810002 1.2523459e-38
-0.035629719 0.17844629 1.0810001 1.7336021e-38
-0.080812678 0.18164137 1.0810001 1.2430913e-38
-0.078661114 0.1827064 1.0810001 1.2432718e-38
-0.035629719 0.18164137 1.0810001 1.7243109e-38
-0.080812678 0.18590149 1.0810001 1.242948e-38
-0.078661114 0.18696651 1.0810001 1.2433079e-38
-0.037781287 0.18803154 1.0810001 1.7242752e-38
-0.07650955 0.19229166 1.0810001 1.2619992e-38
-0.042084426 0.19442171 1.0810001 1.705368e-38
-0.038641915 0.19271767 1.0810002 1.7240946e-38
-0.072923593 0.1972618 1.0810001 1.3174603e-38
-0.042801619 0.19797182 1.0810001 1.7055114e-38
-0.038857073 0.19655177 1.0810001 1.7241309e-38
-0.071130618 0.20187691 1.0810001 1.3635224e-38
-0.067903265 0.20294194 1.0810001 1.3914329e-38
-0.044235997 0.20081188 1.0810001 1.6778163e-38
-0.071130618 0.20720206 1.0810002 1.4005087e-38
-0.066827483 0.20720206 1.0810002 1.4006879e-38
-0.063600123 0.20933211 1.0810001 1.4376016e-38
-0.057862606 0.2086221 1.0810001 1.4840254e-38
-0.052483678 0.20791209 1.0810002 1.5578185e-38
-0.047821946 0.20720205 1.0810001 1.6132436e-38
-0.070772022 0.21288221 1.0810001 1.5764711e-38
-0.067903265 0.21146217 1.0810001 1.6587983e-38
-0.062524334 0.21252719 1.0810001 1.5120802e-38
-0.058579795 0.2121722 1.0810001 1.4566922e-38
-0.052842274 0.21146218 1.0810001 1.4934617e-38
-0.066827476 0.21891737 1.0810001 1.4191277e-38
-0.062309176 0.21742633 1.0810002 1.6407938e-38
-0.05875909 0.21838485 1.0810001 1.6774927e-38
-0.063600123 0.22317748 1.0810001 1.5109997e-38
-0.058579795 0.22282247 1.0810001 1.5387661e-38
-0.050690703 0.22211245 1.0810001 1.5762576e-38
-0.046387564 0.22211245 1.0810001 1.5488154e-38
-0.063600123 0.22637255 1.0810001 1.4926676e-38
-0.058579795 0.22779261 1.0810001 1.5021031e-38
-0.05230438 0.22797011 1.0810001 1.5850433e-38
-0.047104757 0.22779261 1.0810001 1.6773473e-38
-0.044235997 0.22743759 1.0810001 1.6775999e-38
-0.051018953 0.11850211 1.0880001 1.8902614e-38
-0.041635111 0.1177875 1.0880001 1.954582e-38
-0.071940757 0.12290008 1.0862858 1.5023916e-38
-0.067213103 0.12377562 1.08725 1.8718588e-38
-0.063145764 0.12321859 1.0880002 1.9545108e-38
-0.057515461 0.12309608 1.0880002 1.9360715e-38
-0.052101701 0.12278982 1.0880002 1.9361793e-38
-0.047770705 0.12278982 1.0880002 1.9639104e-38
-0.042356949 0.12278981 1.0880002 1.9637655e-38
-0.038025942 0.12064596 1.0880001 1.9545458e-38
-0.065994993 0.1267271 1.085 1.6784651e-38
-0.062755689 0.1267271 1.085 1.8901899e-38
-0.057356872 0.1267271 1.085 1.9637302e-38
-0.051958039 0.1267271 1.085 1.9638381e-38
-0.047638983 0.1267271 1.085 1.9730578e-38
-0.042959999 0.12743977 1.085 1.9453631e-38
-0.032162346 0.16877322 1.085 1.7428585e-38
-0.035761561 0.17269278 1.085 1.7427145e-38
-0.032543998 0.17281288 1.0857501 1.7612256e-38
-0.035761561 0.17589968 1.085 1.7426785e-38
-0.032911167 0.17677447 1.0860001 1.7611895e-38
-0.086090252 0.18203107 1.0865 1.2430533e-38
-0.082788914 0.18297549 1.0857501 1.2430187e-38
-0.035761561 0.18445143 1.085 1.7243471e-38
-0.032565735 0.18256554 1.0865 1.7520061e-38
-0.085666984 0.18817723 1.0880001 1.2060683e-38
-0.082702897 0.18836257 1.0870001 1.2245443e-38
-0.035761561 0.18765834 1.085 1.7335666e-38
-0.032911167 0.187474 1.0860001 1.7611895e-38
-0.085666984 0.19139299 1.0880001 1.205997e-38
-0.082418725 0.19246492 1.0880001 1.2156484e-38
-0.079061329 0.1921981 1.0865 1.2342323e-38
-0.035811 0.19220105 1.0865 1.7426067e-38
-0.032973107 0.1921076 1.0880001 1.7519343e-38
-0.085666984 0.1999684 1.0880001 1.289656e-38
-0.082418725 0.19782454 1.0880002 1.2437747e-38
-0.078088365 0.19770665 1.085 1.2711824e-38
-0.074633114 0.19941701 1.085 1.3173526e-38
-0.040080622 0.19941701 1.085 1.7240947e-38
-0.036547326 0.19764075 1.0870001 1.733459e-38
-0.085666984 0.20318416 1.0880001 1.2434865e-38
-0.082418725 0.20318417 1.0880001 1.3270764e-38
-0.078034647 0.20304485 1.08725 1.3633785e-38
-0.074633114 0.2026239 1.085 1.3449754e-38
-0.041808248 0.20283771 1.085 1.677925e-38
-0.037973516 0.20290551 1.0865 1.650699e-38
-0.085666984 0.20747186 1.0880001 1.1418918e-38
-0.082306594 0.20718582 1.0865 1.290163e-38
-0.077926986 0.20704207 1.0857501 1.4560776e-38
-0.074633114 0.20689979 1.085 1.4464263e-38
-0.046559215 0.20796876 1.085 1.6501218e-38
-0.042317025 0.20728216 1.0870001 1.6595936e-38
-0.038025942 0.20747186 1.0880001 1.6048529e-38
-0.085666984 0.2128315 1.0880001 1.1507152e-38
-0.082381353 0.21273468 1.0875001 1.1515798e-38
-0.077872418 0.21224466 1.085 1.2905943e-38
-0.074093238 0.21224463 1.085 1.4842043e-38
-0.066714838 0.21366994 1.085 1.6041304e-38
-0.056277104 0.21438257 1.085 1.6038808e-38
-0.051958039 0.21438257 1.085 1.6683795e-38
-0.047423031 0.21267223 1.085 1.61346e-38
-0.042316023 0.21263587 1.0870001 1.6504114e-38
-0.038025942 0.2128315 1.0880001 1.7335306e-38
-0.085666984 0.21819112 1.0880001 1.1784801e-38
-0.082418725 0.21819112 1.0880001 1.1695499e-38
-0.077926986 0.21774061 1.0857501 1.2159019e-38
-0.072473586 0.21758948 1.085 1.3269692e-38
-0.066714838 0.21723315 1.085 1.5120069e-38
-0.056277104 0.21758947 1.085 1.8252558e-38
-0.051958043 0.21758947 1.085 1.8807526e-38
-0.047638983 0.21758947 1.085 1.9177749e-38
-0.042316027 0.21799058 1.0870001 1.9546546e-38
-0.038025942 0.21819112 1.0880001 1.9914608e-38
-0.085666984 0.22247881 1.0880001 1.2520202e-38
-0.082418732 0.22247881 1.0880001 1.2518773e-38
-0.078087725 0.22247881 1.0880001 1.2617811e-38
-0.072542369 0.22206984 1.0860002 1.3176394e-38
-0.067434683 0.22222167 1.085 1.4005804e-38
-0.062755689 0.22186536 1.085 1.4927413e-38
-0.055197336 0.22186536 1.085 1.5851886e-38
-0.052317962 0.22150904 1.085 1.5948415e-38
-0.047998905 0.22150904 1.085 1.5859819e-38
-0.042296559 0.2221716 1.0865 1.6411193e-38
-0.038025942 0.22247881 1.0880001 1.7147682e-38
-0.067106172 0.22731589 1.0855001 1.4186938e-38
-0.062215809 0.22774468 1.085 1.4741929e-38
-0.0562771 0.22614121 1.085 1.5574569e-38
-0.052317962 0.2257849 1.085 1.5944079e-38
-0.047998905 0.2257849 1.085 1.6314669e-38
-0.04165481 0.22708428 1.0858573 1.668561e-38
-0.038025942 0.22783844 1.0880001 1.7145512e-38
-0.071788624 0.11775399 1.0910001 1.5849343e-38
-0.06744568 0.11775399 1.0910001 2.0191556e-38
-0.063464642 0.11811229 1.0910001 1.9915692e-38
-0.057131182 0.11829143 1.0910001 1.9269236e-38
-0.052607279 0.1173957 1.0910001 1.9084849e-38
-0.04790242 0.11775399 1.0910001 1.9270676e-38
-0.044645213 0.11775399 1.0910001 1.954582e-38
-0.06744568 0.12097863 1.0910001 2.0100075e-38
-0.062016994 0.12097863 1.0910001 1.9453631e-38
-0.05767405 0.12205351 1.0910001 1.9360714e-38
-0.031616375 0.17902218 1.0910001 1.7612616e-38
-0.096760564 0.18977098 1.0910001 1.1784801e-38
-0.091331869 0.1886961 1.0910001 1.1876642e-38
-0.088074669 0.1886961 1.0910001 1.1968841e-38
-0.031616375 0.18977098 1.0910001 1.770409e-38
-0.028902033 0.18815866 1.0910001 1.7704093e-38
-0.096760564 0.19192074 1.0910001 1.160077e-38
-0.092417613 0.19245818 1.0910001 1.1507864e-38
-0.087350845 0.19335392 1.0910001 1.1876653e-38
-0.031616375 0.1940705 1.0910001 1.7611899e-38
-0.028721077 0.19263732 1.0910001 1.7704093e-38
-0.090246141 0.19729514 1.0910001 1.1875937e-38
-0.086627029 0.19765344 1.0910001 1.1974608e-38
-0.033064023 0.19693685 1.0910001 1.7427868e-38
-0.088074669 0.20266955 1.0910001 1.2153596e-38
-0.035959326 0.20266955 1.0910001 1.7151641e-38
-0.032702111 0.20051979 1.0910001 1.7519703e-38
-0.090246141 0.20696907 1.0910001 1.1783723e-38
-0.088074669 0.20804395 1.0910001 1.1600045e-38
-0.035959322 0.20696907 1.0910001 1.6692822e-38
-0.088074669 0.21234347 1.0910001 1.1690816e-38
-0.035959322 0.21234347 1.0910001 1.7244188e-38
-0.088074669 0.21771787 1.0910001 1.1967743e-38
-0.035959322 0.21664299 1.0910001 1.9730588e-38
-0.088074669 0.22309227 1.0910001 1.2613113e-38
-0.035959322 0.22201739 1.0910001 1.7424989e-38
-0.061154656 0.1171069 1.095 1.9915691e-38
-0.057885505 0.1171069 1.095 1.9454347e-38
-0.029633824 0.16935302 1.098 1.7704809e-38
-0.029593341 0.17236108 1.0965 1.7612972e-38
-0.029552856 0.17752089 1.095 1.7796646e-38
-0.029552856 0.18183617 1.095 1.7704455e-38
-0.097115315 0.19478203 1.095 1.1692604e-38
-0.09275645 0.19478203 1.095 1.1599701e-38
-0.026283706 0.19478203 1.095 1.7703733e-38
-0.095195979 0.19964278 1.098 1.1967399e-38
-0.093482934 0.1976589 1.095 1.1875207e-38
-0.088397577 0.19693968 1.095 1.1786618e-38
-0.031732291 0.19909732 1.095 1.7611539e-38
-0.027397428 0.19820032 1.0960001 1.7703732e-38
-0.02304608 0.19829123 1.0965 1.7703732e-38
-0.091793798 0.20261094 1.0965 1.2059245e-38
-0.032822009 0.20341259 1.095 1.779485e-38
-0.028878367 0.20234373 1.0970001 1.7795567e-38
-0.09179379 0.20747153 1.0965 1.1783728e-38
-0.03609116 0.20988552 1.095 1.6417312e-38
-0.032822009 0.20772788 1.0950001 1.7703018e-38
-0.029633824 0.20721522 1.098 1.8162554e-38
-0.092037149 0.21282326 1.0968001 1.1967393e-38
-0.032822009 0.21312198 1.095 1.8073234e-38
-0.029633826 0.2126241 1.098 1.9082353e-38
-0.095195979 0.21695121 1.098 1.233652e-38
-0.091730259 0.21758693 1.0957501 1.2152133e-38
-0.032822009 0.21743728 1.095 1.9823862e-38
-0.028541122 0.21803299 1.098 1.9546564e-38
-0.091185406 0.22244312 1.0957501 1.2521633e-38
-0.03609116 0.22283138 1.095 1.8254379e-38
-0.033039954 0.22239986 1.0950001 1.8070702e-38
-0.029633824 0.22344187 1.098 1.7427494e-38
-0.027548412 0.16996999 1.102 1.7796283e-38
-0.027548412 0.17322713 1.102 1.7887757e-38
-0.09773615 0.19819865 1.102 1.196775e-38
-0.096639469 0.2014558 1.102 1.1967396e-38
-0.026451729 0.20362723 1.102 1.7887401e-38
-0.02316168 0.20254152 1.102 1.7887041e-38
-0.095542789 0.20905583 1.102 1.1875918e-38
-0.027548412 0.20797011 1.102 1.8254031e-38
-0.095542789 0.21231298 1.102 1.2151061e-38
-0.027548412 0.21231298 1.102 1.8530618e-38
-0.095542789 0.21774158 1.102 1.2244686e-38
-0.026086167 0.21774158 1.102 1.9822782e-38
-0.028723076 0.17914207 1.105 1.7887765e-38
-0.098356977 0.20382807 1.1090001 1.205923e-38
-0.096654251 0.20697212 1.1063335 1.1784084e-38
-0.025424071 0.20744759 1.105 1.8346583e-38
-0.098356985 0.21256898 1.1090001 1.2059583e-38
-0.025424071 0.21289095 1.105 1.8349107e-38
-0.098002218 0.21724564 1.105 1.233616e-38
-0.025424071 0.21615697 1.105 2.0557828e-38
-0.098711737 0.20675635 1.113 1.1967753e-38
-0.1018338 0.20861402 1.123 1.2059945e-38
