# .PCD v0.7 - Point Cloud Data file format
VERSION 0.7
FIELDS x y z rgb
SIZE 4 4 4 4
TYPE F F F F
COUNT 1 1 1 1
WIDTH 1040
HEIGHT 1
VIEWPOINT 0 0 0 1 0 0 0
POINTS 1040
DATA ascii
0.028143551 0.081041418 1.2360001 5.1622546e-39
0.030603625 0.082259156 1.2360001 5.8954939e-39
0.021993367 0.085912369 1.2360001 5.1557694e-39
0.028143551 0.085912369 1.2360001 7.3652051e-39
0.030603625 0.085912369 1.2360001 9.4756251e-39
0.022064541 0.062978499 1.24 7.7476153e-39
0.013426418 0.069086894 1.24 5.7125221e-39
0.017128471 0.069086894 1.24 5.5284966e-39
0.023298558 0.066643536 1.24 5.3466165e-39
0.025766594 0.066643536 1.24 5.169404e-39
0.030702664 0.066643536 1.24 6.178168e-39
0.035638735 0.069086894 1.24 5.1618889e-39
0.012192401 0.073973611 1.24 5.6199565e-39
0.018362489 0.071530253 1.24 5.3448298e-39
0.035638735 0.072751932 1.24 5.3473577e-39
0.013426418 0.078860328 1.24 5.8947442e-39
0.018362489 0.078860328 1.24 5.7114487e-39
0.0331707 0.078860328 1.24 5.2555265e-39
0.013426418 0.083747044 1.24 6.0776907e-39
0.018362489 0.083747044 1.24 5.7092837e-39
0.0331707 0.083747044 1.24 6.0777229e-39
0.018362489 0.086190403 1.24 5.524891e-39
0.023298558 0.088633761 1.24 6.0748432e-39
0.0084903482 0.10085054 1.24 5.9851447e-39
0.012192401 0.10085054 1.24 5.9855021e-39
0.013523868 0.059743967 1.2490001 4.5186789e-39
0.033411454 0.059743967 1.2490001 7.4674621e-39
0.03838335 0.059743967 1.2490001 9.1190605e-39
0.040869299 0.059743967 1.2490001 1.1416736e-38
0.012280894 0.063435599 1.2490001 5.3433977e-39
0.017252792 0.063435599 1.2490001 5.7189877e-39
0.023467662 0.062205058 1.2490001 8.5762913e-39
0.027610911 0.063025422 1.2490001 8.5777263e-39
0.032168481 0.063435599 1.2490001 8.0224155e-39
0.037140377 0.064666145 1.2490001 6.4475844e-39
0.041697949 0.063025422 1.2490001 6.3575314e-39
0.0035800752 0.069588326 1.2490001 5.7103613e-39
0.0073089972 0.068357781 1.2490001 5.7103641e-39
0.011854786 0.067873314 1.2476667 5.7114473e-39
0.017252792 0.067127235 1.2490001 5.6206922e-39
0.028348479 0.066912256 1.245 5.6253543e-39
0.033304453 0.066912256 1.245 5.8976476e-39
0.037475407 0.067801654 1.2463334 5.5281533e-39
0.04204683 0.068248324 1.247 5.7121802e-39
0.046669848 0.068767965 1.2490001 5.7179157e-39
0.0027514256 0.073690154 1.2490001 5.7110718e-39
0.0072904471 0.073102966 1.2460001 5.5266847e-39
0.01100257 0.07181868 1.245 5.6196034e-39
0.015958544 0.07181868 1.245 5.5284938e-39
0.03838335 0.073279969 1.2490001 5.7136193e-39
0.042112272 0.073279969 1.2490001 5.8980022e-39
0.046669848 0.073690154 1.2490001 5.628227e-39
0.0023371009 0.078202151 1.2490001 5.5291916e-39
0.0072904467 0.078013331 1.2460001 5.6203069e-39
0.01100257 0.077951699 1.245 5.8036233e-39
0.015958544 0.077951699 1.245 5.7114403e-39
0.037082896 0.078076929 1.247 5.3462787e-39
0.042112272 0.078202151 1.2490001 5.7132536e-39
0.048327144 0.076971605 1.2490001 5.7186248e-39
-0.0013918215 0.084354877 1.2490001 5.8036163e-39
0.0023371009 0.08312434 1.2490001 5.8039779e-39
0.007295304 0.082991228 1.247 5.895456e-39
0.01100257 0.082858123 1.245 5.986574e-39
0.015958544 0.082858123 1.245 5.8943868e-39
0.033304453 0.081631519 1.245 5.0700548e-39
0.037082896 0.082991228 1.247 5.0671737e-39
0.042112272 0.083124332 1.2490001 4.9753354e-39
-0.0013918215 0.086815976 1.2490001 5.9876446e-39
0.0027514258 0.087636344 1.2490001 6.1709611e-39
0.0073089972 0.088046521 1.2490001 6.3542734e-39
0.012280894 0.088046521 1.2490001 6.3531916e-39
0.016818723 0.088361405 1.2476667 5.9851391e-39
0.020914517 0.08899115 1.245 5.2483154e-39
0.027109485 0.08899115 1.245 7.7303835e-39
0.032547139 0.088364027 1.2476667 9.2933764e-39
0.037111636 0.087977014 1.248 6.7216196e-39
0.041697949 0.087636344 1.2490001 4.6973066e-39
0.0035800752 0.092968702 1.2490001 6.2617232e-39
0.0073089972 0.092968702 1.2490001 6.1691702e-39
0.012280894 0.092968702 1.2490001 6.7205349e-39
0.017223174 0.092819825 1.247 6.7201832e-39
0.022224687 0.092968702 1.2490001 6.6308589e-39
0.027196586 0.092968702 1.2490001 1.0031275e-38
0.03838335 0.092968702 1.2490001 7.7292961e-39
0.0085519711 0.097890884 1.2490001 6.0769788e-39
0.012272057 0.097811528 1.248 6.2610057e-39
0.017237982 0.097813495 1.248 6.3528454e-39
0.022224687 0.097890884 1.2490001 6.7234076e-39
0.027196586 0.097890884 1.2490001 9.8490319e-39
0.006879068 0.10300111 1.2463334 5.8018311e-39
0.012241564 0.10371041 1.245 5.8021884e-39
0.017227154 0.10264844 1.247 5.6181601e-39
0.022224687 0.10281307 1.2490001 5.3408599e-39
0.027196586 0.10281307 1.2490001 5.8043366e-39
0.0072855903 0.10739022 1.245 5.6174412e-39
0.012252391 0.10747747 1.2460001 5.8029045e-39
0.017239973 0.10764998 1.248 5.8018297e-39
0.022224687 0.10773526 1.2490001 5.7085648e-39
0.027196586 0.10773526 1.2490001 5.8968923e-39
0.0073021506 0.11256822 1.248 5.8000318e-39
0.01186657 0.11224725 1.2490001 5.618516e-39
0.017252792 0.11142689 1.2490001 6.0773404e-39
0.022224687 0.11142689 1.2490001 6.1709723e-39
0.027196586 0.11142689 1.2490001 6.2685377e-39
0.022224687 0.11881017 1.2490001 5.4377289e-39
0.025953611 0.11881017 1.2490001 5.2580011e-39
0.0035944069 0.059983134 1.2540001 5.7110858e-39
0.0073382566 0.058747664 1.2540001 5.2519167e-39
0.011914074 0.058335841 1.2540001 5.3473451e-39
0.017321857 0.059983134 1.2540001 5.535681e-39
0.027305458 0.059983134 1.2540001 8.394428e-39
0.032713242 0.057512194 1.2540001 7.4660313e-39
0.03703947 0.057018008 1.2540001 7.8308636e-39
0.0035944069 0.063689552 1.2540001 5.7110802e-39
0.0073382566 0.063689552 1.2540001 5.5270575e-39
0.037289057 0.062454078 1.2540001 7.2787646e-39
0.043528806 0.064925022 1.2540001 5.3426816e-39
0.046856679 0.064101376 1.2540001 5.8979896e-39
-0.0013973933 0.06863144 1.2540001 5.8940211e-39
0.0019304737 0.068219617 1.2540001 5.8021926e-39
0.04852061 0.067395963 1.2540001 5.8104701e-39
0.052264459 0.06863144 1.2540001 5.8133399e-39
0.057256259 0.069866911 1.2540001 6.1792512e-39
0.061000109 0.069866911 1.2540001 6.0827578e-39
-0.0022293599 0.073985152 1.2540001 5.8025443e-39
0.0010985069 0.072337851 1.2540001 5.8940267e-39
0.04852061 0.072337851 1.2540001 5.6303808e-39
0.052264459 0.073573321 1.2540001 5.6310983e-39
0.057256259 0.073573321 1.2540001 5.9026629e-39
0.061000109 0.072337851 1.2540001 5.990202e-39
-0.0022293599 0.07892704 1.2540001 5.7124983e-39
0.046856679 0.07892704 1.2540001 5.6239222e-39
0.052264459 0.078515217 1.2540001 5.8086638e-39
0.057256259 0.078515217 1.2540001 5.7118102e-39
-0.0026453433 0.083457097 1.2540001 5.6203041e-39
0.04727266 0.083457097 1.2540001 5.5292127e-39
0.052264459 0.083457097 1.2540001 5.9905383e-39
0.056840278 0.083868921 1.2540001 5.8043604e-39
-0.0026453433 0.088398993 1.2540001 6.0791186e-39
0.0010985069 0.089634463 1.2540001 6.2627938e-39
0.043528806 0.089634463 1.2540001 5.0700366e-39
0.04727266 0.088398993 1.2540001 5.3516373e-39
0.052264459 0.088398993 1.2540001 5.9033649e-39
0.056008309 0.088398993 1.2540001 5.9934124e-39
-0.0013973933 0.092105404 1.2540001 6.6294155e-39
0.0010985069 0.093340874 1.2540001 6.3535559e-39
0.032297257 0.093340874 1.2540001 1.040005e-38
0.036041107 0.093340874 1.2540001 1.1041828e-38
0.042280857 0.093340874 1.2540001 4.791649e-39
0.046024706 0.092105404 1.2540001 5.9069551e-39
0.053512409 0.092105404 1.2540001 5.814758e-39
0.056008309 0.092105404 1.2540001 5.8118924e-39
0.0060903067 0.098282769 1.2540001 5.8933078e-39
0.032297257 0.098282769 1.2540001 1.0124534e-38
0.037289057 0.098282769 1.2540001 8.0073193e-39
0.041032907 0.097047292 1.2540001 3.5005725e-39
0.032297257 0.10322465 1.2540001 6.533627e-39
0.037289057 0.10322466 1.2540001 4.3299548e-39
0.032297257 0.10816654 1.2540001 5.8082798e-39
0.037705041 0.10775472 1.2540001 5.2508349e-39
0.013578007 0.1143439 1.2540001 5.8018297e-39
0.017321857 0.1143439 1.2540001 6.0780592e-39
0.022313658 0.1143439 1.2540001 6.172766e-39
0.027305458 0.1143439 1.2540001 6.0873807e-39
0.032297257 0.11310843 1.2540001 5.2633737e-39
0.0077542402 0.1176385 1.2540001 6.9034857e-39
0.012330057 0.11805032 1.2540001 6.2595708e-39
0.017321857 0.11805032 1.2540001 5.7092851e-39
0.022313658 0.11681484 1.2540001 6.0820095e-39
0.02772144 0.11763849 1.2540001 5.6278486e-39
0.032297257 0.11805031 1.2540001 5.0775559e-39
0.036041107 0.11805032 1.2540001 4.9796262e-39
0.018569807 0.1229922 1.2540001 4.9720928e-39
0.022313656 0.1229922 1.2540001 4.4221434e-39
0.026889473 0.12258038 1.2540001 4.792721e-39
0.022729641 0.12752227 1.2540001 6.3524797e-39
0.027305458 0.12669863 1.2540001 9.3884405e-39
0.032297257 0.12669863 1.2540001 1.1316987e-38
0.036041107 0.12669863 1.2540001 1.1590344e-38
0.0023558126 0.057741504 1.2590001 5.7107284e-39
0.0073675159 0.055260707 1.2590001 5.8979966e-39
0.01237922 0.055260707 1.2590001 9.8558912e-39
0.016973283 0.056914575 1.2590001 8.1092259e-39
0.022402629 0.057741504 1.2590001 9.2130469e-39
0.027414333 0.057741504 1.2590001 8.0213519e-39
0.03117311 0.056501105 1.2590001 7.4638845e-39
-0.001402965 0.0614627 1.2590001 6.0780578e-39
0.0011028869 0.0614627 1.2590001 5.8947498e-39
0.023655554 0.060222302 1.2590001 8.5745033e-39
0.048714072 0.0614627 1.2590001 9.301986e-39
0.051219925 0.062703095 1.2590001 7.3738119e-39
-0.0026558912 0.066424295 1.2590001 5.9858552e-39
0.0011028869 0.0651839 1.2590001 5.8029087e-39
0.052472852 0.0651839 1.2590001 4.9810793e-39
0.057484556 0.066424295 1.2590001 4.7059386e-39
0.062078618 0.066837758 1.2590001 5.8061779e-39
-0.0064146686 0.070145488 1.2590001 5.9854951e-39
-0.0039088172 0.07138589 1.2590001 5.9858552e-39
0.063749187 0.07138589 1.2590001 5.8976533e-39
0.06750796 0.07138589 1.2590001 5.8061807e-39
0.071266741 0.07138589 1.2590001 5.8980162e-39
-0.0064146686 0.076347485 1.2590001 6.0780452e-39
-0.0039088172 0.07758788 1.2590001 5.8954532e-39
0.062078618 0.075934015 1.2590001 5.6203461e-39
0.071266741 0.075107083 1.2590001 5.8050989e-39
-0.0064146686 0.081309073 1.2590001 5.8958063e-39
-0.0039088172 0.082549468 1.2590001 5.6203027e-39
0.058737479 0.082549468 1.2590001 5.894405e-39
0.061243333 0.081309073 1.2590001 5.8011346e-39
0.066255033 0.082549468 1.2590001 8.3746767e-39
-0.0064146686 0.08627066 1.2590001 5.9876404e-39
-0.0039088172 0.08999186 1.2590001 6.3542622e-39
0.058737479 0.088751465 1.2590001 4.7934553e-39
0.061243333 0.08627066 1.2590001 4.6072718e-39
0.066255033 0.087511063 1.2590001 9.8487012e-39
0.078784294 0.087511063 1.2590001 6.9024319e-39
0.081290148 0.087511063 1.2590001 3.5988638e-39
-0.0039088172 0.092472658 1.2590001 6.8130851e-39
0.047878787 0.094126523 1.2590001 5.8144021e-39
0.05205521 0.094126523 1.2590001 5.6296521e-39
0.058737479 0.092472658 1.2590001 5.5299329e-39
0.042449445 0.098674648 1.2590001 4.1477243e-39
0.047461145 0.097434253 1.2590001 5.6275025e-39
0.052890491 0.098261178 1.2590001 5.5313594e-39
0.057484552 0.099915043 1.2590001 5.43378e-39
0.042031802 0.1040497 1.2590001 4.789861e-39
0.053725775 0.10239584 1.2590001 5.528491e-39
0.058737479 0.10239584 1.2590001 5.250109e-39
0.036184814 0.10983823 1.2590001 5.1704718e-39
0.041196518 0.10983823 1.2590001 5.524203e-39
0.037437737 0.11355942 1.2590001 4.7066406e-39
0.041196518 0.11355942 1.2590001 5.6163944e-39
0.0061145904 0.11976141 1.2590001 8.098775e-39
0.038690664 0.11852102 1.2590001 4.9753242e-39
0.042449445 0.11852101 1.2590001 4.9742536e-39
0.0086204419 0.12348261 1.2590001 9.7521699e-39
0.011961578 0.12306915 1.2590001 8.9242225e-39
0.016137999 0.12348261 1.2590001 5.6152874e-39
0.028667258 0.12472301 1.2590001 6.5379654e-39
0.032426037 0.12348261 1.2590001 5.8940337e-39
0.036184814 0.12348261 1.2590001 5.6149427e-39
0.043702368 0.12224221 1.2590001 4.3303303e-39
0.046208221 0.12224221 1.2590001 4.978557e-39
0.01864385 0.12720381 1.2590001 6.4393042e-39
0.021149702 0.1296846 1.2590001 6.8041308e-39
0.027414333 0.1296846 1.2590001 1.159607e-38
0.032426037 0.1296846 1.2590001 1.2698096e-38
0.037437737 0.12844419 1.2590001 1.2052746e-38
0.041196518 0.12720381 1.2590001 1.0488327e-38
0.023655554 0.1321654 1.2590001 1.2241797e-38
0.036184814 0.1321654 1.2590001 1.2788857e-38
-0.0014074224 0.057924956 1.263 6.1702549e-39
0.0023632974 0.055436276 1.263 5.4352262e-39
0.02373071 0.055436276 1.263 9.9452226e-39
0.02750143 0.055436276 1.263 7.8312279e-39
0.048868842 0.057924956 1.263 1.3349572e-38
-0.0039212359 0.060413633 1.263 6.3535629e-39
0.053896468 0.061657973 1.263 7.0950866e-39
0.058086157 0.06207275 1.263 4.7041449e-39
0.061437909 0.062902309 1.263 5.5299525e-39
0.084062234 0.061657973 1.263 7.6421549e-39
0.086576045 0.061657973 1.263 9.2062268e-39
-0.0064350492 0.067879669 1.263 5.9858524e-39
0.063951723 0.065390997 1.263 5.805822e-39
0.068141416 0.067050114 1.263 5.9909321e-39
0.072331101 0.067050114 1.263 5.8072625e-39
0.084062234 0.066635333 1.263 7.9201641e-39
-0.0064350492 0.07285703 1.263 6.0769718e-39
0.074006975 0.071612686 1.263 5.7143424e-39
0.077777699 0.071612686 1.263 5.3451997e-39
0.082805321 0.07036835 1.263 5.8043688e-39
0.063951723 0.077834383 1.263 5.3430459e-39
0.067722447 0.076590046 1.263 5.4359618e-39
0.071493164 0.077834383 1.263 5.7118159e-39
0.078196667 0.076175272 1.263 5.341604e-39
0.081548415 0.07534571 1.263 5.1575687e-39
0.063951723 0.081567407 1.263 6.5358186e-39
0.068141416 0.081152633 1.263 7.5485188e-39
0.071493164 0.081567407 1.263 8.9281882e-39
0.079034604 0.081567407 1.263 6.533662e-39
0.082805321 0.082811743 1.263 4.5193739e-39
0.063951723 0.086544752 1.263 7.2740857e-39
0.068141416 0.086129978 1.263 1.0123845e-38
0.071493164 0.086544752 1.263 1.1317692e-38
0.077777699 0.086544752 1.263 9.2004661e-39
0.084062234 0.087789096 1.263 4.342516e-39
0.062694818 0.091522112 1.263 5.9855189e-39
0.067303479 0.091107331 1.263 9.6635896e-39
0.078196667 0.091107339 1.263 6.6287135e-39
0.081548415 0.090277776 1.263 3.6896273e-39
0.05724822 0.096914254 1.263 5.5302818e-39
0.077777699 0.095255129 1.263 4.4185631e-39
0.043841217 0.10023249 1.263 4.6990947e-39
0.047611937 0.10147683 1.263 5.5288511e-39
0.051382653 0.10147683 1.263 5.6203279e-39
0.056410283 0.10272117 1.263 5.4345003e-39
0.063951723 0.10023249 1.263 5.5256225e-39
0.066465542 0.10023249 1.263 5.7125207e-39
0.042584307 0.10769852 1.263 5.4345129e-39
0.048030905 0.1060394 1.263 5.7132466e-39
0.043841217 0.11143154 1.263 5.6196272e-39
0.047611933 0.11143154 1.263 5.6217824e-39
0.043841217 0.11516456 1.263 5.5270701e-39
0.046355028 0.11516456 1.263 5.4370296e-39
0.0036202041 0.12263059 1.263 9.937629e-39
0.0061340174 0.12263059 1.263 9.4770208e-39
0.038813587 0.12263059 1.263 3.8679145e-39
0.041327402 0.12263059 1.263 3.5945646e-39
0.046355028 0.12014192 1.263 4.9756942e-39
0.0036202041 0.12511927 1.263 1.0213135e-38
0.0073909243 0.12636361 1.263 1.0212058e-38
0.012837521 0.12677839 1.263 9.2933456e-39
0.01618927 0.12760794 1.263 8.7384019e-39
0.038813587 0.12511927 1.263 6.5329459e-39
0.042584307 0.12511927 1.263 6.5347438e-39
0.046355028 0.12511927 1.263 7.9205131e-39
0.0086478312 0.13009663 1.263 1.0487923e-38
0.012418551 0.13009663 1.263 1.0396086e-38
0.017865144 0.13092619 1.263 9.8422258e-39
0.021216895 0.1325853 1.263 1.1220121e-38
0.02750143 0.1325853 1.263 1.3065791e-38
0.032529056 0.1325853 1.263 1.2788492e-38
0.038813587 0.13134097 1.263 1.2605187e-38
0.022473803 0.13507397 1.263 1.2791365e-38
0.02750143 0.13507397 1.263 1.3340574e-38
0.033785962 0.13507397 1.263 1.2879256e-38
0.037556682 0.13507397 1.263 1.2787789e-38
0.0086820666 0.051907945 1.268 7.3713134e-39
0.011205832 0.05315721 1.268 1.1142669e-38
-0.0026748767 0.056905005 1.268 6.1702535e-39
0.042752892 0.05815427 1.268 1.2889344e-38
0.047800425 0.056905005 1.268 1.2705654e-38
0.052427329 0.057321429 1.268 1.1967386e-38
0.057895485 0.056905009 1.268 7.0965243e-39
0.061681133 0.05815427 1.268 6.4597855e-39
0.083133131 0.05815427 1.268 6.3535839e-39
0.086918779 0.05815427 1.268 7.549609e-39
-0.0064605242 0.061902065 1.268 6.2613631e-39
-0.0039367592 0.06315133 1.268 6.2617246e-39
0.044014778 0.0606528 1.268 1.1233058e-38
0.046538543 0.0606528 1.268 1.1052964e-38
0.051586073 0.0606528 1.268 1.1511787e-38
0.056633603 0.0606528 1.268 6.4515263e-39
0.063363642 0.061485644 1.268 5.8072541e-39
0.067990541 0.06315133 1.268 5.8987337e-39
0.073038071 0.061902061 1.268 5.437401e-39
0.078085601 0.061902061 1.268 4.9764256e-39
0.081871249 0.061902065 1.268 5.8018619e-39
0.089442544 0.061902065 1.268 9.5742835e-39
-0.0064605242 0.06564986 1.268 6.0780466e-39
-0.0039367592 0.06564986 1.268 6.0780494e-39
0.066728659 0.06564986 1.268 5.990572e-39
0.074299954 0.06564986 1.268 5.7150683e-39
0.078085601 0.066899121 1.268 5.2548034e-39
0.081871249 0.066899121 1.268 5.3451913e-39
0.087760031 0.066482708 1.268 1.0218198e-38
0.083133131 0.073145457 1.268 5.0668122e-39
0.086918779 0.070646919 1.268 8.1985419e-39
0.074299954 0.076893255 1.268 5.5270687e-39
0.076823719 0.078142516 1.268 5.3412397e-39
0.083133131 0.076893255 1.268 4.8820566e-39
0.086918779 0.078142516 1.268 5.0711058e-39
0.074299954 0.081890315 1.268 9.0182202e-39
0.076823719 0.081890315 1.268 8.7391376e-39
0.081871249 0.080641046 1.268 4.8813391e-39
-0.0089842882 0.085638106 1.268 6.0791228e-39
0.074299954 0.086887375 1.268 1.159283e-38
0.076823719 0.085638106 1.268 1.1406306e-38
0.081871249 0.085638106 1.268 4.0566063e-39
-0.0064605242 0.091884434 1.268 6.5379331e-39
0.069252424 0.093133695 1.268 9.8451068e-39
0.073038071 0.091884427 1.268 9.7546922e-39
0.076823719 0.093133695 1.268 5.7114291e-39
-0.0064605242 0.095632225 1.268 6.7201818e-39
0.059157368 0.095632225 1.268 5.7135997e-39
0.062943012 0.096881494 1.268 6.0769942e-39
0.067990541 0.096881486 1.268 7.5488705e-39
0.073458701 0.096465074 1.268 7.2722752e-39
0.078085601 0.098130755 1.268 4.4221532e-39
0.081871249 0.098130755 1.268 3.4123285e-39
0.044014778 0.10312781 1.268 4.9742466e-39
0.062522389 0.10229497 1.268 5.1600714e-39
0.066728659 0.10312781 1.268 5.0732582e-39
0.046538543 0.10812488 1.268 5.8047275e-39
0.052427329 0.10645919 1.268 5.7136039e-39
0.052847955 0.11187267 1.268 5.5302987e-39
0.057474859 0.1122891 1.268 5.0689632e-39
0.061681133 0.11312194 1.268 4.7012541e-39
0.047800425 0.11686973 1.268 5.161163e-39
0.052847955 0.11562047 1.268 4.9774878e-39
0.057895485 0.11562047 1.268 4.3328415e-39
0.061681133 0.11562047 1.268 4.1488075e-39
0.0011107709 0.12311606 1.268 1.0212777e-38
0.049062308 0.12186679 1.268 5.716115e-39
0.052427329 0.12145038 1.268 6.171673e-39
0.056633603 0.12061753 1.268 5.5220128e-39
0.0019520258 0.12728029 1.268 1.0305331e-38
0.0061583007 0.12811312 1.268 1.0304253e-38
0.044014778 0.12811312 1.268 1.1416729e-38
0.049062308 0.1256146 1.268 9.3041299e-39
0.056633603 0.1256146 1.268 1.2328601e-38
0.0023726532 0.13061166 1.268 1.0397884e-38
0.006999556 0.13227734 1.268 1.058012e-38
0.012467714 0.13311018 1.268 1.0763788e-38
0.016253361 0.13311018 1.268 1.094711e-38
0.042332262 0.1314445 1.268 1.2423318e-38
0.0086820666 0.13560872 1.268 1.0857423e-38
0.012888342 0.13644157 1.268 1.1131851e-38
0.017515244 0.13560872 1.268 1.1592107e-38
0.023824656 0.13810724 1.268 1.2698811e-38
0.032237206 0.13727441 1.268 1.3062565e-38
0.037705362 0.13810724 1.268 1.2973614e-38
0.041491009 0.13560872 1.268 1.2788512e-38
0.013729597 0.14185503 1.268 1.1410227e-38
0.017515244 0.14185503 1.268 1.1593905e-38
0.022983402 0.14227146 1.268 1.2606253e-38
0.028872186 0.1431043 1.268 1.3341672e-38
0.0086820666 0.14685211 1.268 1.2243571e-38
0.012467714 0.14685211 1.268 1.2242493e-38
0.017515244 0.14685211 1.268 1.251731e-38
0.023824656 0.14560284 1.268 1.3066871e-38
0.023899812 0.047058869 1.2720001 8.4701149e-39
0.002380138 0.053324897 1.2720001 5.4359478e-39
0.0061777276 0.052071691 1.2720001 4.7952574e-39
0.021368084 0.053324897 1.2720001 1.297974e-38
0.049217075 0.053324897 1.2720001 1.0404379e-38
-0.0064809043 0.057084516 1.2720001 6.2620833e-39
-0.0039491779 0.055831309 1.2720001 6.1706108e-39
0.018836359 0.055831309 1.2720001 1.0958637e-38
0.021368084 0.055831309 1.2720001 1.1783365e-38
0.046685349 0.055831309 1.2720001 1.2337965e-38
0.054280527 0.055831309 1.2720001 9.2994931e-39
0.063563526 0.056666784 1.2720001 7.4735619e-39
0.068205029 0.058337722 1.2720001 6.7356395e-39
0.073268481 0.057084516 1.2720001 6.9182357e-39
0.078753889 0.057502251 1.2720001 5.623216e-39
0.083395384 0.055831309 1.2720001 6.5430058e-39
0.088458836 0.057084516 1.2720001 7.827635e-39
0.068205029 0.060844135 1.2720001 5.9919985e-39
0.093522295 0.062097341 1.2720001 1.0400793e-38
0.09858574 0.062097341 1.2720001 8.4672269e-39
0.10238333 0.063350543 1.2720001 3.8761737e-39
-0.0090126311 0.068363369 1.2720001 5.8943784e-39
0.089724705 0.068363369 1.2720001 1.0861044e-38
0.093522295 0.067110166 1.2720001 1.058446e-38
0.09858574 0.067110166 1.2720001 7.5485202e-39
-0.0090126311 0.070869781 1.2720001 5.9854965e-39
0.0888808 0.072540723 1.2720001 6.6348231e-39
0.093522295 0.072122984 1.2720001 7.5517418e-39
0.09858574 0.072122991 1.2720001 6.0766383e-39
0.0888808 0.076718077 1.2720001 4.8881522e-39
0.093522295 0.075882606 1.2720001 5.4380932e-39
-0.0090126311 0.083401844 1.2720001 5.9869272e-39
0.088458844 0.082148641 1.2720001 5.1697572e-39
-0.0090126311 0.088414669 1.2720001 6.1705996e-39
0.088458844 0.087161466 1.2720001 5.1715494e-39
-0.0090126311 0.092174292 1.2720001 6.5372241e-39
0.082129523 0.093427494 1.2720001 4.2377718e-39
-0.0077467677 0.097187117 1.2720001 6.4443194e-39
0.07200262 0.098440319 1.2720001 7.1843928e-39
0.083395384 0.095933907 1.2720001 4.6962332e-39
0.088458836 0.095933907 1.2720001 6.9038682e-39
0.073268481 0.10094673 1.2720001 5.9916075e-39
0.078753889 0.1017822 1.2720001 4.887076e-39
0.082129523 0.10219994 1.2720001 4.792012e-39
0.087192975 0.10094673 1.2720001 1.0950727e-38
0.054280527 0.10846597 1.2720001 5.8061597e-39
0.058078118 0.10721277 1.2720001 5.3444627e-39
0.063141569 0.10721277 1.2720001 4.7973915e-39
0.06778308 0.10763051 1.2720001 4.8031242e-39
0.079597794 0.10721277 1.2720001 5.4380932e-39
0.082129523 0.10721277 1.2720001 5.8954742e-39
0.087192975 0.10721277 1.2720001 9.0214488e-39
0.059343982 0.11097238 1.2720001 5.1607959e-39
0.063563526 0.11180785 1.2720001 4.7051959e-39
0.068205029 0.11222558 1.2720001 4.6172995e-39
0.079597794 0.11097238 1.2720001 5.066445e-39
0.082129523 0.11222558 1.2720001 4.8802657e-39
0.087192975 0.11097238 1.2720001 6.4454068e-39
0.049217075 0.11849161 1.2720001 4.8842216e-39
0.053014666 0.11849161 1.2720001 4.3321128e-39
0.058078118 0.11849161 1.2720001 3.4116096e-39
0.063563526 0.11765614 1.2720001 4.2374131e-39
0.068205029 0.11723841 1.2720001 6.0795026e-39
0.054280527 0.12350444 1.2720001 8.562972e-39
0.058078118 0.12225123 1.2720001 7.6367473e-39
0.063141569 0.12225123 1.2720001 9.0153686e-39
0.066939168 0.12225123 1.2720001 1.1224797e-38
0.047951214 0.12851727 1.2720001 1.279317e-38
0.053014666 0.12726405 1.2720001 1.2700973e-38
0.056812253 0.12851727 1.2720001 1.4535519e-38
0.063141569 0.12601085 1.2720001 1.3526054e-38
0.0036460012 0.1335301 1.2720001 1.0581914e-38
0.044153623 0.1335301 1.2720001 1.2695957e-38
0.047951214 0.13227689 1.2720001 1.3618267e-38
0.0036460012 0.1360365 1.2720001 1.0950331e-38
0.007443591 0.1372897 1.2720001 1.0949975e-38
0.011241181 0.13854291 1.2720001 1.1132928e-38
0.017570496 0.13854291 1.2720001 1.1684298e-38
0.021368084 0.13854291 1.2720001 1.2422578e-38
0.027697401 0.13854291 1.2720001 1.3065429e-38
0.043309718 0.13770744 1.2720001 1.2973616e-38
0.0078655463 0.14272027 1.2720001 1.159641e-38
0.011241181 0.14230253 1.2720001 1.1410586e-38
0.021368084 0.14104933 1.2720001 1.233074e-38
0.027275449 0.1418848 1.2720001 1.3066514e-38
0.032760851 0.14230253 1.2720001 1.3341314e-38
0.037824307 0.14230253 1.2720001 1.3342389e-38
0.041621897 0.14230253 1.2720001 1.3434222e-38
0.037824307 0.14731535 1.2720001 1.3804801e-38
-0.0026938622 0.053534508 1.2770001 5.9873027e-39
0.013827045 0.053534508 1.2770001 1.197278e-38
0.017639562 0.053534508 1.2770001 1.2521995e-38
0.022722919 0.051018246 1.2770001 1.1966324e-38
0.10278578 0.052276377 1.2770001 7.0021791e-39
0.044327185 0.056050774 1.2770001 1.1419625e-38
0.06847313 0.056050774 1.2770001 8.2132513e-39
0.077368997 0.056050774 1.2770001 6.9139366e-39
0.091771841 0.05688953 1.2770002 8.4708394e-39
0.096431583 0.057308905 1.2770001 7.5477873e-39
0.10193856 0.057728283 1.2770002 4.6068948e-39
0.10532746 0.056050774 1.2770001 3.5981715e-39
0.12311921 0.057308905 1.2770001 5.807596e-39
-0.0090480577 0.062341433 1.2770001 6.1698849e-39
0.10278578 0.061083302 1.2770001 4.1495236e-39
0.10532746 0.062341433 1.2770001 5.4452665e-39
-0.0090480577 0.066115826 1.2770001 5.9862139e-39
0.10278578 0.067373961 1.2770001 4.333203e-39
0.10532746 0.068632089 1.2770001 4.8870844e-39
0.10278578 0.072406486 1.2770001 5.2497601e-39
0.10532746 0.072406486 1.2770001 5.1593595e-39
0.092619069 0.078697152 1.2770001 5.8100973e-39
0.096855193 0.077858403 1.2770002 5.7153962e-39
0.1002441 0.077439018 1.2770001 5.7128878e-39
0.092619069 0.08247155 1.2770001 5.630371e-39
0.096431583 0.08247155 1.2770001 5.4445532e-39
0.1002441 0.083729677 1.2770001 5.6235733e-39
0.092619069 0.087504074 1.2770001 5.6296549e-39
0.096431583 0.087504074 1.2770001 5.6257131e-39
0.084994033 0.092536598 1.2770001 4.4268252e-39
0.087535709 0.092536598 1.2770001 4.9789101e-39
0.090077393 0.092536598 1.2770001 5.530279e-39
0.097702421 0.092536598 1.2770001 5.9844301e-39
0.084994033 0.098827265 1.2770001 6.8120383e-39
0.087535709 0.098827265 1.2770001 9.6603694e-39
0.090077393 0.098827265 1.2770001 1.0032369e-38
0.096855193 0.09714976 1.2770002 7.4562979e-39
0.073556483 0.1038598 1.2770001 5.4441847e-39
0.077368997 0.1038598 1.2770001 5.3509184e-39
0.084994033 0.10260166 1.2770001 8.2853467e-39
0.087535709 0.1038598 1.2770001 1.131878e-38
0.090077393 0.10260166 1.2770001 1.0859241e-38
0.073980093 0.10721481 1.2770002 5.2623115e-39
0.077368997 0.10763419 1.2770001 5.3505625e-39
0.084994033 0.10763419 1.2770001 7.6417794e-39
0.090924621 0.10721481 1.2770002 9.0203614e-39
0.073556483 0.11266672 1.2770001 4.7059134e-39
0.078216225 0.1130861 1.2770002 4.5139971e-39
0.084994033 0.11266672 1.2770001 5.3380083e-39
0.087535709 0.11392485 1.2770001 5.3401607e-39
0.073132873 0.11727987 1.2770002 7.2712116e-39
0.079063453 0.11727987 1.2770002 7.2669152e-39
0.083723195 0.11644112 1.2770001 6.7144729e-39
0.087535709 0.11644112 1.2770001 7.7304017e-39
0.059577253 0.12398991 1.2770001 9.9355046e-39
0.069743969 0.12147365 1.2770001 1.058446e-38
0.073556483 0.12147365 1.2770001 1.1777244e-38
0.059577253 0.12776431 1.2770001 1.3524606e-38
0.062118929 0.12902243 1.2770001 1.4537669e-38
0.0011186549 0.13405497 1.2770001 1.0674825e-38
0.053223059 0.13279684 1.2770001 1.4811746e-38
0.057035573 0.13279684 1.2770001 1.4902854e-38
0.0023894939 0.13782936 1.2770001 1.1043602e-38
0.0062020114 0.1390875 1.2770001 1.1135081e-38
0.048139699 0.13657123 1.2770001 1.3250921e-38
0.0036603331 0.14286189 1.2770001 1.1690041e-38
0.0062020114 0.14160375 1.2770001 1.150314e-38
0.044327185 0.14286189 1.2770001 1.3527131e-38
0.021536073 0.043639652 1.2820001 7.0958055e-39
0.018984443 0.047428828 1.2820001 9.4842529e-39
0.021536073 0.047428828 1.2820001 9.4803068e-39
0.11084311 0.048691887 1.2820001 1.2152855e-38
-0.0065318546 0.053744119 1.2820001 6.1713268e-39
-0.0027044099 0.051218003 1.2820001 5.8961917e-39
0.0023988499 0.051218003 1.2820001 5.621058e-39
0.017708629 0.051218003 1.2820001 1.2337608e-38
0.048328191 0.052481063 1.2820001 8.8399582e-39
0.053431448 0.053744119 1.2820001 8.5608434e-39
0.058534708 0.053744119 1.2820001 5.8997762e-39
0.07256867 0.053744119 1.2820001 8.2979122e-39
0.096809156 0.053744119 1.2820001 4.8842174e-39
0.1006366 0.052481063 1.2820001 6.1727828e-39
0.1125442 0.052902084 1.2820001 7.6464555e-39
0.11594637 0.053744119 1.2820001 6.5404681e-39
0.12360127 0.053744119 1.2820001 5.7132564e-39
-0.01291093 0.057533294 1.2820001 6.170245e-39
-0.0090834843 0.057533294 1.2820001 6.2627966e-39
0.041949116 0.056270234 1.2820001 1.059275e-38
0.1006366 0.056270234 1.2820001 4.6047228e-39
0.10744095 0.057954311 1.2820001 4.7988461e-39
0.11211893 0.057533294 1.2820001 6.1796015e-39
0.11722219 0.057533294 1.2820001 6.3611131e-39
0.12104964 0.057533294 1.2820001 5.9905453e-39
0.1261529 0.057533294 1.2820001 5.9952145e-39
0.13720997 0.057112277 1.2820001 5.352373e-39
-0.012485659 0.06300655 1.2820001 6.0780508e-39
0.10829148 0.063848585 1.2820001 6.36685e-39
0.12360127 0.062585525 1.2820001 5.7125291e-39
0.12700345 0.062164508 1.2820001 5.2590942e-39
0.13635942 0.061322469 1.2820001 4.8921123e-39
-0.011635114 0.066374704 1.2820001 5.9862181e-39
0.10744094 0.067216747 1.2820001 5.3527177e-39
0.12360127 0.067637756 1.2820001 5.8929631e-39
0.1261529 0.066374704 1.2820001 5.3430291e-39
0.10829148 0.072689995 1.2820001 5.1604371e-39
0.11084311 0.072689995 1.2820001 5.528498e-39
0.10318823 0.077742226 1.2820001 5.8032926e-39
0.10701567 0.077742226 1.2820001 5.620702e-39
0.11084311 0.079005286 1.2820001 5.8068898e-39
0.10318823 0.084057517 1.2820001 5.8054548e-39
0.10701567 0.084057517 1.2820001 5.4388303e-39
0.11084311 0.082794458 1.2820001 5.5313805e-39
-0.01291093 0.089109756 1.2820001 6.2617218e-39
0.1006366 0.089109756 1.2820001 5.8025709e-39
0.10573986 0.089109756 1.2820001 5.4352332e-39
0.11084311 0.086583637 1.2820001 5.2540719e-39
-0.01291093 0.094161987 1.2820001 6.4436005e-39
0.095533341 0.092898928 1.2820001 5.9876587e-39
0.1006366 0.094161987 1.2820001 6.075188e-39
-0.016738376 0.096688099 1.2820001 7.8225567e-39
-0.01291093 0.096688099 1.2820001 6.718028e-39
0.092981711 0.097951159 1.2820001 8.838138e-39
0.095533341 0.099214219 1.2820001 9.1132759e-39
0.10191241 0.097951159 1.2820001 6.8127404e-39
0.092981711 0.1030034 1.2820001 1.0583008e-38
0.096809156 0.10300339 1.2820001 9.2033191e-39
0.10191241 0.1030034 1.2820001 7.2729885e-39
0.07256867 0.10931869 1.2820001 5.1719068e-39
0.092981711 0.10931869 1.2820001 7.8239972e-39
0.096809156 0.10805563 1.2820001 7.361594e-39
0.10191241 0.10805563 1.2820001 5.7986067e-39
0.091280624 0.11268684 1.2820001 6.3524937e-39
0.076396115 0.11942315 1.2820001 9.0157287e-39
0.08277519 0.11942315 1.2820001 1.0209957e-38
0.071292855 0.12447539 1.2820001 1.407671e-38
0.076396115 0.12321233 1.2820001 1.2696674e-38
0.08022356 0.12194927 1.2820001 1.2051322e-38
0.06746541 0.12826456 1.2820001 1.490394e-38
-0.001428595 0.13457985 1.2820001 1.0859573e-38
0.059810523 0.13331679 1.2820001 1.4903571e-38
-0.001428595 0.13836902 1.2820001 1.1320544e-38
0.048328191 0.13963208 1.2820001 1.3342032e-38
0.054707263 0.13710596 1.2820001 1.4259299e-38
0.019058486 0.043809853 1.2870001 6.8185053e-39
-0.016803656 0.048881792 1.2870001 5.6188803e-39
-0.012961283 0.048881792 1.2870001 5.8958246e-39
-0.0078381207 0.048881792 1.2870001 5.8958316e-39
-0.0027149578 0.048881792 1.2870001 6.0813088e-39
0.0024082055 0.048881792 1.2870001 6.2692916e-39
0.0075313691 0.048881792 1.2870001 6.5483798e-39
0.012654533 0.048881792 1.2870001 9.1233638e-39
0.016496906 0.047613807 1.2870001 9.4885576e-39
0.0446743 0.048881792 1.2870001 7.0950964e-39
0.048516676 0.048881792 1.2870001 6.3582629e-39
0.052359048 0.048881792 1.2870001 5.3581449e-39
0.057482209 0.048881792 1.2870001 5.273145e-39
0.10871385 0.048881792 1.2870001 1.2429807e-38
-0.018084448 0.05395373 1.2870001 5.6181685e-39
-0.012961283 0.052685745 1.2870001 5.895463e-39
-0.0082650511 0.052263081 1.2870001 6.0794942e-39
0.012654533 0.051417761 1.2870001 1.013284e-38
0.043820441 0.053108405 1.2870001 9.1194346e-39
0.047235884 0.051417761 1.2870001 8.3793528e-39
0.053639837 0.051417761 1.2870001 5.0686002e-39
0.057482209 0.051417761 1.2870001 3.3219378e-39
0.062605374 0.05395373 1.2870001 8.2064438e-39
0.065166958 0.05395373 1.2870001 8.2100409e-39
0.070290118 0.05395373 1.2870001 8.301131e-39
0.075413287 0.05395373 1.2870001 7.5607269e-39
0.080536447 0.05395373 1.2870001 6.8242773e-39
0.088221192 0.05395373 1.2870001 6.9154051e-39
0.092063561 0.05395373 1.2870001 7.557162e-39
0.10871385 0.05395373 1.2870001 4.7080924e-39
0.11896017 0.05395373 1.2870001 5.8965532e-39
0.12280255 0.052685745 1.2870001 5.5281477e-39
0.12664492 0.05395373 1.2870001 6.2678595e-39
0.13774511 0.053108405 1.2870001 5.7182842e-39
-0.017657517 0.057335019 1.2870001 5.9862265e-39
0.12920649 0.057757683 1.2870001 5.9977228e-39
0.13304886 0.057757683 1.2870001 5.6307409e-39
0.13945282 0.059025668 1.2870001 5.1658335e-39
-0.016803656 0.062829621 1.2870001 6.0784208e-39
-0.014242074 0.061561637 1.2870001 6.2624435e-39
0.10871385 0.061561637 1.2870001 6.4579709e-39
0.11255622 0.062829621 1.2870001 6.3657724e-39
0.11767939 0.062829621 1.2870001 6.1788728e-39
0.12152176 0.062829621 1.2870001 5.989109e-39
0.12920649 0.064097606 1.2870001 4.7073623e-39
0.13304886 0.062829621 1.2870001 4.8024264e-39
0.13859896 0.063252285 1.2870001 4.8870901e-39
-0.014242074 0.066633575 1.2870001 5.9865825e-39
0.11255622 0.067901559 1.2870001 5.9944844e-39
0.11767939 0.067901559 1.2870001 5.8969022e-39
0.12152176 0.067901559 1.2870001 5.8933176e-39
0.12835264 0.068324223 1.2870001 6.262096e-39
0.13304886 0.067901559 1.2870001 7.6432171e-39
0.13817203 0.067901559 1.2870001 5.8940449e-39
0.11383701 0.072973497 1.2870001 5.8032856e-39
0.11767939 0.072973497 1.2870001 5.9858762e-39
0.12280255 0.072973497 1.2870001 6.5361675e-39
0.12749879 0.072550833 1.2870001 8.5608504e-39
0.13304886 0.071705513 1.2870001 1.0307874e-38
0.13817203 0.071705513 1.2870001 7.3669946e-39
0.11298315 0.077622771 1.2870001 5.8065268e-39
0.11767939 0.078045435 1.2870001 6.2649784e-39
0.12152176 0.078045435 1.2870001 6.9053046e-39
0.12664492 0.07931342 1.2870001 1.0217118e-38
0.13945282 0.076777451 1.2870001 7.0911322e-39
0.1023099 0.081849389 1.2870001 5.8061695e-39
0.10743306 0.081849389 1.2870001 5.622144e-39
0.11383701 0.083117373 1.2870001 5.5313791e-39
0.11767939 0.083117373 1.2870001 5.8040073e-39
0.12152176 0.083117373 1.2870001 6.1691857e-39
-0.016803656 0.089457296 1.2870001 5.8014709e-39
0.10273683 0.087766647 1.2870001 5.7125361e-39
0.10785999 0.087766647 1.2870001 5.2529985e-39
0.11255622 0.088189311 1.2870001 5.161156e-39
0.11767939 0.088189311 1.2870001 5.067524e-39
0.12152176 0.088189311 1.2870001 5.1586365e-39
-0.012961283 0.091993265 1.2870001 6.2606484e-39
0.093344353 0.093261249 1.2870001 5.9894551e-39
0.10273682 0.092838585 1.2870001 5.8007647e-39
0.10743306 0.093261249 1.2870001 5.2533404e-39
-0.016803656 0.099601172 1.2870001 8.5593861e-39
-0.014242074 0.099601172 1.2870001 7.6381668e-39
0.10700613 0.097910523 1.2870001 5.8097246e-39
0.11127543 0.097065203 1.2870001 5.3544861e-39
-0.016803656 0.10213714 1.2870001 9.2036639e-39
-0.014242074 0.10213714 1.2870001 8.4668345e-39
0.10615227 0.10340513 1.2870001 6.4504207e-39
0.10615227 0.10720908 1.2870001 5.8951071e-39
0.093344353 0.11481699 1.2870001 5.9858748e-39
0.096759796 0.11312634 1.2870001 6.0744733e-39
0.1023099 0.113549 1.2870001 7.4512883e-39
0.0869404 0.11988892 1.2870001 1.1685062e-38
0.092063561 0.11735296 1.2870001 8.3753956e-39
0.077974863 0.12496086 1.2870001 1.380049e-38
0.08181724 0.12369288 1.2870001 1.3248048e-38
0.085659608 0.12242489 1.2870001 1.3433157e-38
0.072851703 0.12749684 1.2870001 1.4995774e-38
0.076694071 0.12749684 1.2870001 1.4720628e-38
-0.0027149578 0.13130079 1.2870001 1.0491154e-38
0.062605374 0.13256878 1.2870001 1.4995766e-38
0.065166958 0.13130079 1.2870001 1.4720982e-38
0.071570911 0.13130079 1.2870001 1.4720265e-38
0.075413287 0.13130079 1.2870001 1.4720619e-38
-0.0039957487 0.13764071 1.2870001 1.1319828e-38
0.052359048 0.13764071 1.2870001 1.4077432e-38
0.057482209 0.13764071 1.2870001 1.4443686e-38
0.061751515 0.1367954 1.2870001 1.4534797e-38
0.067728542 0.13637273 1.2870001 1.4259655e-38
0.070290118 0.13637273 1.2870001 1.3984873e-38
0.044813152 0.038858313 1.291 1.3371207e-38
-0.013001568 0.043946017 1.291 5.8961959e-39
-0.0078624822 0.042674091 1.291 5.4370254e-39
-0.0027233958 0.043946017 1.291 7.0925797e-39
0.0024156903 0.043946017 1.291 8.1139049e-39
0.007554776 0.043946017 1.291 8.6713708e-39
0.012693862 0.043946017 1.291 7.9334625e-39
0.017404694 0.042250119 1.2910001 6.8249709e-39
0.021687264 0.041402165 1.291 1.0406188e-38
0.044813152 0.042674091 1.291 1.0147314e-38
0.048667468 0.042674091 1.291 1.1722156e-38
0.05252178 0.043946017 1.291 1.3104004e-38
-0.013001568 0.046489865 1.291 5.9876657e-39
-0.0078624822 0.046489865 1.291 5.7118088e-39
-0.0027233958 0.046489865 1.291 6.4508074e-39
0.0024156903 0.046489865 1.291 7.3784964e-39
0.007554776 0.046489865 1.291 8.0256441e-39
0.012693862 0.046489865 1.291 8.4830293e-39
0.043100126 0.047337815 1.2910001 6.7299349e-39
0.048667468 0.046489865 1.291 6.921156e-39
0.05252178 0.046489865 1.291 9.415819e-39
0.05594784 0.047337815 1.2910001 9.1381686e-39
0.12318421 0.049033716 1.291 5.3480668e-39
0.12960806 0.049033716 1.291 6.9135932e-39
0.1334624 0.049033716 1.291 6.7288432e-39
0.13860148 0.049033716 1.291 5.622867e-39
-0.022851482 0.053273469 1.2910001 9.3887964e-39
-0.018140655 0.051577568 1.291 5.5252526e-39
0.039674066 0.05412142 1.291 8.2904152e-39
0.042243607 0.051577568 1.291 8.3847576e-39
0.061515182 0.051577568 1.291 6.3650788e-39
0.067939036 0.05412142 1.291 8.2089493e-39
0.071793348 0.051577568 1.291 6.2714552e-39
0.078217208 0.05412142 1.291 7.0057819e-39
0.083356291 0.05412142 1.291 6.7320915e-39
0.08592584 0.05412142 1.291 6.8228564e-39
0.11804512 0.051577568 1.291 5.6196076e-39
0.12189944 0.051577568 1.291 4.975697e-39
0.12875155 0.052425519 1.2910001 6.4522508e-39
0.1334624 0.052849494 1.291 6.3625662e-39
0.13988625 0.051577568 1.291 5.7157787e-39
0.14245579 0.052849494 1.291 5.8058234e-39
-0.023279738 0.056665268 1.291 9.9423247e-39
-0.019425426 0.05920912 1.291 6.7209133e-39
0.14245579 0.056665268 1.291 5.6235845e-39
0.14502533 0.056665268 1.291 5.6228726e-39
-0.019425426 0.063024893 1.291 6.5368836e-39
0.14245579 0.061752971 1.291 5.1615288e-39
-0.018140655 0.066840678 1.291 5.8018409e-39
0.14245579 0.066840678 1.291 5.5267057e-39
0.14759488 0.069384523 1.291 5.5381796e-39
0.12960806 0.074472226 1.291 1.0490827e-38
0.1334624 0.074472226 1.291 1.0307872e-38
0.13860148 0.074472226 1.291 8.1027533e-39
0.14245579 0.0732003 1.291 6.6341071e-39
0.14631011 0.0732003 1.291 5.8122483e-39
0.12446898 0.078288004 1.291 7.9180061e-39
0.12875155 0.077864036 1.2910001 1.0951079e-38
0.1334624 0.078288004 1.291 1.0673777e-38
0.13817322 0.078711979 1.2910001 7.0893343e-39
0.14245579 0.078288004 1.291 6.1716982e-39
0.14631011 0.078288004 1.291 5.7161024e-39
0.12446898 0.083375707 1.291 6.5375996e-39
0.12832329 0.083375707 1.291 7.642487e-39
0.1334624 0.082103781 1.291 9.0203782e-39
0.13902974 0.082951739 1.2910001 5.5259743e-39
0.14245579 0.083375707 1.291 5.6178097e-39
0.14631011 0.082103781 1.291 5.7114403e-39
-0.019425426 0.089735329 1.291 5.7074816e-39
0.11419081 0.089735329 1.291 5.068959e-39
0.12446898 0.088463411 1.291 5.0678702e-39
0.12789504 0.088039443 1.2910001 4.9774654e-39
0.13217762 0.087191485 1.291 4.703754e-39
-0.018140653 0.093551114 1.291 6.6269156e-39
0.11247778 0.093127131 1.2910001 4.9799863e-39
0.11804512 0.093551114 1.291 4.9796276e-39
0.12275596 0.093127131 1.2910001 5.2540523e-39
0.10905173 0.099910736 1.291 5.9969787e-39
0.11162127 0.099910736 1.291 5.7229043e-39
0.1193299 0.097366884 1.291 5.349115e-39
0.10905173 0.10372651 1.291 6.1781414e-39
0.10905173 0.10754228 1.291 5.8057785e-39
0.097917043 0.11686974 1.2910001 8.3750284e-39
0.10262787 0.11771769 1.291 1.1226944e-38
0.088495381 0.12280539 1.291 1.416855e-38
0.092349693 0.12026154 1.291 1.3158009e-38
0.070508577 0.12789309 1.291 1.4996131e-38
0.08249978 0.12704514 1.2910001 1.4445124e-38
0.08592584 0.12662116 1.291 1.4353286e-38
0.067939036 0.13298079 1.291 1.4719549e-38
0.078217208 0.13170886 1.291 1.4720619e-38
0.08207152 0.13170886 1.291 1.4444397e-38
-0.0040081674 0.13552465 1.291 1.0952126e-38
0.065369494 0.13679656 1.291 1.4442959e-38
0.073078118 0.13679656 1.291 1.3801198e-38
0.076932438 0.13679656 1.291 1.407706e-38
0.08078675 0.13552465 1.291 1.407598e-38
0.044986714 0.028793998 1.296 8.3923611e-39
0.044986714 0.032624554 1.296 7.6518729e-39
-0.0078929327 0.03773196 1.296 7.4642293e-39
-0.0040236907 0.039008811 1.296 9.5778764e-39
0.0088737831 0.039008811 1.296 8.2021516e-39
0.012743026 0.039008811 1.296 6.8239017e-39
0.017902015 0.039008811 1.296 7.0979719e-39
0.043696966 0.03773196 1.296 1.1153131e-38
0.047566209 0.039008811 1.296 1.4652251e-38
0.050145701 0.039008811 1.296 1.5212964e-38
-0.011762175 0.041562513 1.296 5.4377443e-39
-0.0027339433 0.041562513 1.296 8.0102158e-39
0.0024250464 0.041562513 1.296 8.2010754e-39
0.0075840359 0.041562513 1.296 8.2082501e-39
0.012743026 0.041562513 1.296 7.38066e-39
0.039827723 0.044116218 1.296 7.8348349e-39
0.042407218 0.042839363 1.296 9.5926699e-39
0.055304691 0.044116218 1.296 1.45759e-38
0.061753429 0.049223624 1.296 7.8459738e-39
0.11463308 0.049223624 1.296 1.0772806e-38
0.11850232 0.049223624 1.296 5.5281379e-39
0.12753054 0.049223624 1.296 6.4518976e-39
0.13139978 0.046669919 1.296 7.3752917e-39
0.13655877 0.046669919 1.296 6.452255e-39
0.14214769 0.047521155 1.296 5.1615414e-39
0.14816649 0.047946773 1.296 5.5281659e-39
0.15203574 0.049223624 1.296 5.8054618e-39
0.15590498 0.049223624 1.296 5.8058178e-39
-0.024659649 0.051777326 1.296 1.0862825e-38
0.06691242 0.051777326 1.296 6.4587219e-39
0.075940654 0.051777326 1.296 5.3462956e-39
0.092707366 0.051777326 1.296 7.1937913e-39
0.097866356 0.051777326 1.296 5.7154298e-39
0.14687675 0.053054176 1.296 5.8973043e-39
0.15332548 0.051777326 1.296 5.8983735e-39
0.15590498 0.051777326 1.296 5.8976533e-39
-0.022080155 0.059438433 1.296 9.0214642e-39
0.1430075 0.059438433 1.296 5.2551635e-39
0.145587 0.059438433 1.296 5.3459256e-39
0.15332548 0.056884732 1.296 5.4384716e-39
0.15719473 0.056884732 1.296 5.4373842e-39
-0.022080155 0.063268989 1.296 8.5612105e-39
0.1430075 0.06454584 1.296 5.1597295e-39
0.14730667 0.062843375 1.296 5.1611672e-39
0.1430075 0.069653243 1.296 6.1720625e-39
0.14644684 0.067950778 1.296 5.6239194e-39
0.15074599 0.073483802 1.296 5.2637451e-39
0.15203574 0.078591205 1.296 5.1665174e-39
0.13268954 0.084975466 1.296 5.8972525e-39
0.13655877 0.084975466 1.296 5.4344961e-39
0.14687675 0.084975466 1.296 5.7110858e-39
0.15203574 0.082421765 1.296 5.3437382e-39
0.13655877 0.087529168 1.296 4.8852796e-39
0.14171776 0.087529168 1.296 5.5266987e-39
0.12753054 0.09263657 1.296 5.2579913e-39
0.13139978 0.090082869 1.296 4.9824876e-39
0.13526903 0.090082869 1.296 5.0743302e-39
0.14042801 0.090082869 1.296 5.6210495e-39
0.11463308 0.09646713 1.296 5.1693872e-39
0.11721257 0.097743981 1.296 5.2615815e-39
0.1236613 0.09646713 1.296 5.623904e-39
0.11205358 0.10285138 1.296 5.9058635e-39
0.11893223 0.10200015 1.296 5.6231865e-39
0.1232314 0.10200015 1.296 5.5292e-39
0.11205358 0.10668194 1.296 5.8072092e-39
0.10818434 0.11178935 1.296 6.262812e-39
0.10818434 0.11689675 1.296 1.2147816e-38
0.092707366 0.12328101 1.296 1.4905019e-38
0.088838123 0.12711157 1.296 1.4352924e-38
0.092707366 0.12711157 1.296 1.4628431e-38
0.087548375 0.13221897 1.296 1.4075621e-38
0.092707366 0.13221897 1.296 1.3891953e-38
0.063286394 -0.013393575 1.3010001 1.6230754e-38
0.067170568 -0.012111797 1.3010001 1.7061955e-38
0.067170568 -0.0095482422 1.3010001 1.5588266e-38
0.072349459 -0.0095482422 1.3010001 1.8260137e-38
0.042570822 0.028905086 1.3010001 7.9256026e-39
0.046886571 0.02719605 1.3010001 1.1901514e-38
0.039981376 0.034032196 1.3010001 8.7556884e-39
0.042570822 0.03275042 1.3010001 7.7451392e-39
0.047749717 0.03275042 1.3010001 7.5600206e-39
0.050339162 0.03275042 1.3010001 8.5752207e-39
-0.0014497676 0.039159309 1.3010001 9.8523053e-39
0.0024344022 0.039159309 1.3010001 9.5793155e-39
0.006318572 0.039159309 1.3010001 9.214133e-39
0.012792189 0.036595751 1.3010001 6.4533326e-39
0.016676357 0.036595751 1.3010001 6.6384413e-39
0.039981376 0.03787753 1.3010001 1.0872575e-38
0.042570822 0.036595751 1.3010001 9.4939779e-39
0.047749717 0.036595751 1.3010001 1.1149185e-38
0.051633887 0.03787753 1.3010001 1.3554896e-38
0.055518057 0.039159309 1.3010001 1.7152705e-38
0.039981376 0.041722864 1.3010001 1.1057325e-38
0.052928608 0.041722864 1.3010001 1.6049221e-38
0.056812778 0.043004639 1.3010001 1.641621e-38
0.060696948 0.044286419 1.3010001 1.5677925e-38
0.14226452 0.044286419 1.3010001 5.7197248e-39
0.14744341 0.043004639 1.3010001 7.654719e-39
0.15132758 0.044286419 1.3010001 6.2717971e-39
0.061991669 0.046849973 1.3010001 1.2362107e-38
0.067170568 0.049413528 1.3010001 7.845992e-39
0.071054734 0.049413528 1.3010001 7.9335311e-39
0.094359756 0.049413528 1.3010001 9.224972e-39
0.12802257 0.046849973 1.3010001 6.9157512e-39
0.14614868 0.048131749 1.3010001 5.4359731e-39
0.15262231 0.046849973 1.3010001 5.253367e-39
0.1578012 0.048131749 1.3010001 5.6214265e-39
0.16298008 0.049413528 1.3010001 6.2639092e-39
0.078823075 0.051977083 1.3010001 4.8010391e-39
0.082707241 0.051977083 1.3010001 6.2743783e-39
0.08788614 0.051977083 1.3010001 6.9204666e-39
0.14744341 0.053258859 1.3010001 5.8054688e-39
0.15219074 0.053686123 1.3010001 5.7143438e-39
0.15823278 0.053686123 1.3010001 5.8047346e-39
0.16254851 0.052831601 1.3010001 5.9894747e-39
-0.024754787 0.059667751 1.3010001 1.1139409e-38
0.14873813 0.057104193 1.3010001 5.5306784e-39
0.15219073 0.058813237 1.3010001 5.3462773e-39
0.1578012 0.059667751 1.3010001 5.1607973e-39
0.16298008 0.057104193 1.3010001 5.437017e-39
-0.024754787 0.062231306 1.3010001 1.0772423e-38
0.14614868 0.064794853 1.3010001 5.2519237e-39
0.15391703 0.062231306 1.3010001 5.1622364e-39
0.1578012 0.063513078 1.3010001 5.1615133e-39
-0.022165341 0.067358412 1.3010001 8.2839118e-39
0.15132758 0.069921963 1.3010001 5.3545072e-39
0.14744341 0.08786685 1.3010001 5.6199734e-39
0.15262231 0.085303299 1.3010001 5.5281323e-39
0.15650648 0.085303299 1.3010001 5.6185286e-39
-0.022165341 0.090430409 1.3010001 7.9129671e-39
0.13190672 0.09299396 1.3010001 5.2608598e-39
0.13838035 0.090430409 1.3010001 5.4398841e-39
0.14355923 0.090430409 1.3010001 5.7118131e-39
0.12715942 0.097266555 1.3010001 5.5349342e-39
0.11593848 0.10153916 1.3010001 5.6289206e-39
0.12715942 0.10153915 1.3010001 5.5320657e-39
0.11637005 0.10709352 1.3010001 5.4341163e-39
0.12154894 0.10709351 1.3010001 5.2461532e-39
0.12672785 0.10581174 1.3010001 5.2493888e-39
0.11248588 0.11222063 1.3010001 6.9074415e-39
0.12284367 0.11350241 1.3010001 1.1223711e-38
0.11248588 0.11734774 1.3010001 1.3160163e-38
0.098243922 0.12247485 1.3010001 1.453517e-38
0.1021281 0.12375662 1.3010001 1.48121e-38
0.10730699 0.12247485 1.3010001 1.4168534e-38
-0.009218107 0.12632018 1.3010001 1.0490794e-38
0.098243929 0.12760195 1.3010001 1.4444402e-38
0.1021281 0.12760195 1.3010001 1.4168537e-38
0.10730699 0.12760195 1.3010001 1.4076346e-38
-0.0066286605 0.13272907 1.3010001 1.0675902e-38
0.096949205 0.13272907 1.3010001 1.3891953e-38
0.1021281 0.13144729 1.3010001 1.3709009e-38
0.047933228 -0.025025383 1.3060001 1.4833407e-38
0.04663353 -0.022451974 1.3060001 1.502283e-38
0.051832326 -0.022451974 1.3060001 1.4295737e-38
0.04663353 -0.018591864 1.3060001 1.6041304e-38
0.051832326 -0.018591864 1.3060001 1.4198121e-38
0.057031125 -0.01730516 1.3060001 1.3928027e-38
0.06222992 -0.01730516 1.3060001 1.7890271e-38
0.047933228 -0.012158345 1.3060001 1.6782092e-38
0.051832326 -0.013445049 1.3060001 1.5948012e-38
0.057031125 -0.01344505 1.3060001 1.4106286e-38
0.060930222 -0.01344505 1.3060001 1.4940012e-38
0.053132027 -0.0095849372 1.3060001 1.6869613e-38
0.057031121 -0.0082982332 1.3060001 1.5856908e-38
0.06222992 -0.0082982332 1.3060001 1.4200647e-38
0.067428708 -0.00701153 1.3060001 1.4023455e-38
0.072627515 -0.00701153 1.3060001 1.6788248e-38
0.076526605 -0.00701153 1.3060001 1.8628549e-38
0.057031125 -0.0044381227 1.3060001 1.6503355e-38
0.062663153 -0.0035803202 1.3060001 1.5306973e-38
0.066129014 -0.0031514189 1.3060001 1.4569411e-38
0.076526605 -0.0044381227 1.3060001 1.8076101e-38
0.06872841 0.01357573 1.3060001 1.7612227e-38
0.073927209 0.01357573 1.3060001 1.852985e-38
0.0011440589 0.02386936 1.3060001 8.2961437e-39
0.042734433 0.02386936 1.3060001 1.1538842e-38
0.046633527 0.022582656 1.3060001 1.5951621e-38
0.050532628 0.02386936 1.3060001 1.6780651e-38
-0.0014553394 0.02772947 1.3060001 7.7411903e-39
0.0024437581 0.02772947 1.3060001 7.1923297e-39
