# .PCD v0.7 - Point Cloud Data file format
VERSION 0.7
FIELDS x y z rgb
SIZE 4 4 4 4
TYPE F F F F
COUNT 1 1 1 1
WIDTH 1020
HEIGHT 1
VIEWPOINT 0 0 0 1 0 0 0
POINTS 1020
DATA ascii
0.10455427 0.11805538 1.2004474 8.0084053e-39
0.10766517 0.11769231 1.2024782 9.0193062e-39
0.11020313 0.11740717 1.2040542 9.2948127e-39
-0.052126341 0.12273129 1.202042 8.7434368e-39
0.10311317 0.12298739 1.2014352 7.5495838e-39
0.1065568 0.12209126 1.2035921 7.9165684e-39
-0.050932705 0.12741022 1.2020642 9.111492e-39
-0.049490586 0.12876862 1.2003815 8.0062403e-39
0.098966129 0.12816219 1.200693 6.5393947e-39
0.10203831 0.12752444 1.2026968 6.5390388e-39
0.1050832 0.12653661 1.2046348 9.9383716e-39
-0.050425243 0.13295195 1.2043723 8.0980786e-39
-0.049269982 0.13313943 1.201623 8.2838964e-39
0.094339311 0.13399887 1.2003292 5.5284868e-39
0.097926192 0.13239644 1.2020868 5.8054296e-39
0.10149736 0.1312827 1.2042192 6.723423e-39
-0.048884023 0.13738734 1.2034932 7.8236427e-39
0.089216895 0.13983883 1.2003782 5.6274927e-39
0.093269385 0.13749993 1.2015793 5.4395197e-39
0.097056985 0.13672748 1.2038652 5.5306364e-39
-0.048200309 0.14336538 1.2033422 9.2011681e-39
0.084560692 0.14477681 1.2002336 5.717173e-39
0.087552853 0.14324644 1.2012179 5.4405917e-39
0.09176293 0.14186724 1.2031504 5.34768e-39
0.095133759 0.1408392 1.2049705 5.3534198e-39
-0.046803437 0.14766356 1.2021928 1.0304989e-38
0.082992136 0.14801913 1.2011924 5.2544082e-39
0.087344758 0.14765196 1.2038616 5.34768e-39
-0.045739654 0.15224557 1.202785 9.478104e-39
-0.044249102 0.15421002 1.2013108 1.002983e-38
0.078382172 0.15302327 1.201092 6.6272757e-39
0.081885569 0.15207647 1.2030399 5.4334199e-39
0.085487068 0.15107585 1.2048683 5.4377247e-39
-0.043145806 0.15822062 1.201762 1.0213861e-38
0.073731244 0.15854637 1.2009737 1.0396836e-38
0.076877065 0.15706317 1.2024944 8.1899141e-39
0.08006195 0.15623839 1.2045269 1.2970741e-38
-0.041414253 0.16285215 1.2016629 1.0306054e-38
0.069075562 0.16405794 1.2004745 1.2235335e-38
0.072621427 0.16267419 1.2024648 1.1867277e-38
0.07642021 0.16103515 1.2045301 9.9376584e-39
-0.040418662 0.16614324 1.2019497 1.0490444e-38
-0.039513856 0.16787021 1.2013547 1.0306411e-38
0.067933366 0.16754749 1.2013071 1.2971453e-38
0.072022498 0.16664407 1.2040989 1.2603756e-38
-0.037895855 0.17253326 1.201386 1.0306411e-38
0.063785277 0.17299925 1.2006991 1.4258938e-38
0.067751542 0.1720555 1.2033198 1.4074909e-38
0.070594698 0.1707523 1.2047956 1.4536594e-38
-0.036105238 0.17788368 1.2015212 1.0215292e-38
0.059734903 0.1784528 1.2000479 1.389088e-38
0.062610313 0.17756853 1.2018164 1.4442605e-38
0.066797048 0.17577836 1.2040339 1.4350413e-38
-0.03533135 0.18104857 1.2014035 1.0215649e-38
0.058867499 0.18311889 1.2013752 1.4074905e-38
0.062750161 0.18068556 1.2029837 1.4166382e-38
0.028216671 -0.0037761589 1.2059803 1.3534333e-38
0.032395542 -0.0033049332 1.2062382 1.3534332e-38
0.037383821 -0.0029074196 1.2064195 1.3534332e-38
0.042502042 -0.0015606539 1.2059731 1.4649704e-38
0.047833886 -0.0013514342 1.2054288 1.5580697e-38
0.034422982 0.0017071808 1.2055511 1.3442858e-38
0.035113811 0.0019731927 1.2093875 1.3625806e-38
0.048488107 0.0019953242 1.2078556 1.5304826e-38
0.052363273 0.0033493503 1.2067285 1.5857641e-38
0.05342612 0.0068161497 1.2090274 1.6133868e-38
0.056818459 0.0076438882 1.2069356 1.6133868e-38
0.06002998 0.0092508243 1.2050893 1.7608617e-38
0.058575794 0.011706457 1.2083144 1.6686676e-38
0.061672397 0.013499933 1.2064961 1.6779592e-38
0.059525397 0.015261669 1.2089624 1.7055815e-38
0.062709011 0.01785386 1.2076291 1.7147649e-38
0.06541416 0.018437792 1.2053177 1.724056e-38
0.063781425 0.022481181 1.2084153 1.7239844e-38
0.066613473 0.022654854 1.2062404 1.7148005e-38
0.064273864 0.026736001 1.2090247 1.6872144e-38
0.06738472 0.027731583 1.207779 1.6871426e-38
0.070765436 0.028022978 1.2055182 1.6503721e-38
0.044558033 0.033883452 1.2078851 1.6963271e-38
0.068361558 0.032114394 1.2090044 1.659592e-38
0.072454989 0.03269016 1.207009 1.631897e-38
0.076247416 0.03389461 1.2056297 1.6040944e-38
0.043515984 0.035864934 1.207041 1.6871442e-38
0.047181197 0.038021855 1.207986 1.6871796e-38
0.050676167 0.03868144 1.2093573 1.5855841e-38
0.069357485 0.035565175 1.2096423 1.6596996e-38
0.073607109 0.036438491 1.2087371 1.6319689e-38
0.077422097 0.037254285 1.2075812 1.5949466e-38
0.081876509 0.038216725 1.2064799 1.5764353e-38
0.086527288 0.039472573 1.2060983 1.5488123e-38
0.048052836 0.042227723 1.2066578 1.6318259e-38
0.051207833 0.042496867 1.2090753 1.6317542e-38
0.078120336 0.04019925 1.2095679 1.5948028e-38
0.081807733 0.041405685 1.2092074 1.5671438e-38
0.087000981 0.041535869 1.2079759 1.5579243e-38
0.091848217 0.042093482 1.207654 1.5395932e-38
0.097339466 0.042456143 1.2074096 1.5488849e-38
0.10375551 0.041794524 1.2060264 1.5397375e-38
0.049319059 0.047782786 1.2059346 1.5579255e-38
0.05236727 0.047405016 1.2084857 1.5765083e-38
0.049640227 0.051922657 1.2054406 1.5764723e-38
0.052361574 0.052082516 1.2080663 1.5395944e-38
0.049639151 0.057436913 1.205814 1.5304466e-38
0.052524023 0.05692948 1.2082077 1.5119719e-38
0.049238138 0.062500194 1.2058618 1.484421e-38
0.052787475 0.062106248 1.2087171 1.5120797e-38
0.048608031 0.067612976 1.2062942 1.5030399e-38
0.052883916 0.06742654 1.2093176 1.5489942e-38
0.047736865 0.072742321 1.2064955 1.5215152e-38
0.051900256 0.072838724 1.2090334 1.5214791e-38
-0.057273842 0.07871148 1.2092496 1.0863195e-38
-0.052182112 0.078223675 1.2083397 9.4813648e-39
-0.048075926 0.078282744 1.2077947 9.2047821e-39
-0.042216588 0.078321122 1.2074661 7.5481614e-39
-0.036947001 0.078670919 1.2076916 7.3634157e-39
0.044708844 0.078077212 1.2054187 1.4940004e-38
0.047612514 0.077801898 1.2068341 1.4753811e-38
0.051545002 0.077847973 1.2088903 1.539918e-38
-0.066539913 0.084419034 1.2097771 1.2981867e-38
-0.06221883 0.082606509 1.209016 1.2613809e-38
-0.057488568 0.082976356 1.2072285 1.160039e-38
-0.053187545 0.081842408 1.2063953 9.850499e-39
-0.046632975 0.080476612 1.2059292 7.4566805e-39
-0.041980505 0.08030314 1.2061402 7.0879036e-39
-0.035346407 0.084054314 1.2059004 1.1781916e-38
-0.03180375 0.082773097 1.2072223 1.1323098e-38
-0.026830805 0.082731664 1.2073348 1.0219639e-38
-0.022087058 0.082973801 1.2069274 1.086428e-38
-0.016734958 0.082771748 1.2074101 1.1598603e-38
-0.013107993 0.082608759 1.2089198 1.1507128e-38
0.043824121 0.082226977 1.2052205 1.3831487e-38
0.047674697 0.082187861 1.2059795 1.4384665e-38
0.052162226 0.082674123 1.2076691 1.4476503e-38
0.056931272 0.083404765 1.2093765 1.5121513e-38
-0.066426657 0.08659678 1.2092967 1.307477e-38
-0.062039413 0.088136941 1.2069952 1.2337221e-38
-0.05842898 0.086201973 1.206099 1.2060635e-38
0.05259845 0.086136773 1.206008 1.3277238e-38
0.057540275 0.086911105 1.206943 1.2909541e-38
0.062752351 0.088035189 1.2075486 1.2631877e-38
0.067175053 0.088843018 1.208119 1.1799956e-38
0.072235331 0.089546435 1.2084563 1.0960106e-38
0.077952415 0.089719258 1.209415 1.0127442e-38
0.083943143 0.089923747 1.2096323 8.2864327e-39
0.097613588 0.089750901 1.2073082 6.455108e-39
0.10300149 0.089146994 1.2081779 6.3607768e-39
0.10737009 0.089211531 1.2089124 6.7288418e-39
0.11188824 0.089512542 1.2087387 6.0831137e-39
0.11644767 0.089366928 1.2096794 5.9894902e-39
-0.066543624 0.092545763 1.2081743 1.2797835e-38
-0.062047902 0.092483073 1.2059488 1.2613445e-38
0.064688325 0.090083085 1.2057881 1.3278673e-38
0.068289898 0.090495914 1.2059851 1.1342578e-38
0.072177663 0.090575255 1.207155 1.1430086e-38
0.076843545 0.090982154 1.2072346 1.0961185e-38
0.082163922 0.091473721 1.2079322 1.2248671e-38
0.086855374 0.091984317 1.2075671 1.2061035e-38
0.092512958 0.092210978 1.2064449 1.0038852e-38
0.097883455 0.091362566 1.205893 8.1077854e-39
0.10199247 0.090768591 1.205894 6.1785253e-39
0.10778385 0.091121405 1.2064447 6.1774603e-39
0.11294079 0.092189521 1.206787 6.1763841e-39
0.11733905 0.092623033 1.2078773 5.9902034e-39
0.1216948 0.09337391 1.209133 6.0834738e-39
-0.070225634 0.095324174 1.2094357 1.2981867e-38
-0.066901103 0.095867127 1.2080135 1.2982569e-38
-0.062704951 0.098259106 1.2058682 1.2705989e-38
0.0068943845 0.096685588 1.2079008 7.4649579e-39
0.012128803 0.097531706 1.2077219 7.6482646e-39
0.016385542 0.097479813 1.2056779 7.1883753e-39
0.02041309 0.098077856 1.2079331 7.1015732e-39
0.1149464 0.095461071 1.2055439 6.3665039e-39
0.11789914 0.097351603 1.2060443 5.7128963e-39
0.12242858 0.097020149 1.2083551 5.7128991e-39
0.1250619 0.097616449 1.2095256 5.9891216e-39
-0.066579357 0.10230148 1.2077579 1.2982211e-38
0.1186484 0.10291837 1.2059761 5.8040045e-39
0.12273729 0.10193483 1.2082018 5.4370254e-39
0.12543271 0.10237732 1.2097195 5.4363052e-39
-0.058385763 0.10785195 1.205536 1.2059558e-38
0.1178129 0.10821729 1.2061062 6.0787865e-39
0.12207033 0.10752272 1.2087919 5.8972693e-39
0.12518542 0.1062291 1.2099988 5.1604483e-39
-0.057346292 0.11321214 1.206714 1.0677011e-38
0.11742082 0.11291444 1.2074088 7.2744346e-39
0.12068503 0.11158139 1.2091879 5.7157451e-39
-0.056609858 0.11782537 1.2076032 1.0677366e-38
-0.054693617 0.11937284 1.2052951 9.9405324e-39
0.11297378 0.11783053 1.2063332 7.7325359e-39
0.1164012 0.11722548 1.2085387 7.3651925e-39
-0.055576812 0.12255667 1.2083607 1.1046137e-38
-0.053952008 0.12324391 1.2056936 1.0123838e-38
0.10890865 0.12318264 1.2059052 7.4559532e-39
0.11199597 0.12224828 1.2077463 7.82437e-39
0.11512513 0.1223027 1.2099988 1.0767757e-38
-0.055388976 0.12510711 1.2095267 8.19027e-39
-0.053349063 0.12797779 1.2070621 9.8486871e-39
0.10448976 0.12930721 1.2056589 6.1752799e-39
0.10747304 0.12750041 1.2069643 7.1822418e-39
0.11070195 0.1273146 1.2093887 6.4482781e-39
-0.052000634 0.13240588 1.2073619 9.6650161e-39
0.10241821 0.13314475 1.2060262 5.8061443e-39
0.1063394 0.13210461 1.2085719 6.0812934e-39
-0.050767731 0.13711731 1.2075109 8.9296161e-39
0.098339342 0.13810074 1.2056793 5.6235481e-39
0.10248905 0.13681024 1.208209 5.8068603e-39
0.10551497 0.13535096 1.2098116 5.3412453e-39
-0.050167672 0.14118433 1.2093389 8.2867732e-39
0.093905695 0.14297663 1.205346 5.1643678e-39
0.097863317 0.14254144 1.208025 5.3473199e-39
0.10071875 0.14065531 1.2090871 5.3462423e-39
0.089659877 0.14826325 1.205691 5.1643692e-39
0.092654862 0.14752296 1.2074344 5.16293e-39
0.096265122 0.14580393 1.2088798 5.2558459e-39
-0.047455505 0.15293573 1.2069619 1.0398616e-38
0.083380878 0.15373911 1.205145 7.6435674e-39
0.087792344 0.15237248 1.2073389 6.9078045e-39
0.091202483 0.15108511 1.2088344 6.171687e-39
-0.045590583 0.15825248 1.2069029 1.0491523e-38
-0.044448566 0.15913004 1.2052184 1.030713e-38
0.0787476 0.15966201 1.2055799 1.3432067e-38
0.082406752 0.15769322 1.2070485 9.9369409e-39
0.086079322 0.15689263 1.2091423 8.7437969e-39
-0.045205586 0.16214715 1.2093968 1.0584436e-38
-0.043814901 0.16264537 1.2059501 1.0398248e-38
0.077735312 0.1626122 1.2064264 1.1591056e-38
0.081645727 0.16205834 1.2090287 1.0948924e-38
-0.042298429 0.16747741 1.2065409 1.0399326e-38
0.073509395 0.16838884 1.2060755 1.3246599e-38
0.077164747 0.16674632 1.2081136 1.3155484e-38
0.08046741 0.16515996 1.209852 5.4251761e-39
-0.041278075 0.17230056 1.2075747 1.0491879e-38
-0.039619491 0.17353585 1.205539 1.0307488e-38
0.069678716 0.17433847 1.2056336 1.4258213e-38
0.072507359 0.17217432 1.2069732 1.4166746e-38
0.075988635 0.17187785 1.2093825 1.4443328e-38
-0.038736667 0.17719017 1.2056758 1.0307488e-38
0.06886249 0.17756699 1.2061715 1.4350417e-38
0.072246157 0.17714365 1.2083663 1.4258582e-38
0.067419909 0.18110293 1.2061476 1.3799409e-38
0.033140142 -0.0028763819 1.211859 1.3534333e-38
0.046949111 0.0029527973 1.2111444 1.5581053e-38
0.050060011 0.0048574177 1.2108685 1.6781033e-38
0.047605854 0.0072636306 1.2135997 1.6133507e-38
0.051837381 0.0077604363 1.2113224 1.6226062e-38
0.04958576 0.011044632 1.2145551 1.6593767e-38
0.052614398 0.01216714 1.2132552 1.6503011e-38
0.056238376 0.013398856 1.211427 1.6594485e-38
0.05333152 0.017147658 1.2144883 1.733169e-38
0.057668768 0.017893327 1.2119303 1.6963266e-38
0.053627767 0.022669068 1.214635 1.7515719e-38
0.057315506 0.022996008 1.2129441 1.7332407e-38
0.061134961 0.023454227 1.2110368 1.7332047e-38
0.042819642 0.027493205 1.2128137 1.7424247e-38
0.047045954 0.027802086 1.2140009 1.7518243e-38
0.052570365 0.027976111 1.214231 1.7333132e-38
0.057591308 0.027823389 1.2131892 1.7240214e-38
0.061798271 0.028008098 1.2113619 1.7148736e-38
0.044427991 0.030030224 1.2116909 1.6871442e-38
0.047600169 0.032510012 1.2118479 1.7333134e-38
0.052722573 0.032619048 1.2132475 1.71491e-38
0.057873409 0.033328697 1.2130252 1.6872872e-38
0.062832393 0.032236174 1.2117496 1.7056902e-38
0.067217983 0.03279173 1.2104259 1.6781035e-38
0.047890127 0.036498204 1.2102911 1.7243814e-38
0.052823242 0.03764917 1.2118928 1.6965069e-38
0.057862408 0.037500817 1.2129619 1.6780679e-38
0.062872924 0.037394505 1.2128804 1.650517e-38
0.067102075 0.037542503 1.2118806 1.6412251e-38
0.071858644 0.038455684 1.2108811 1.6135663e-38
0.078114346 0.039893143 1.2102367 1.6320777e-38
0.053377952 0.042100936 1.2109841 1.6320061e-38
0.057318065 0.042486615 1.2123778 1.6227864e-38
0.062272754 0.042048089 1.2133982 1.6135309e-38
0.067727752 0.042220686 1.2134918 1.6320419e-38
0.072717659 0.042326275 1.2128482 1.641261e-38
0.077332437 0.042506315 1.2120874 1.6319331e-38
0.082043067 0.043189477 1.2115759 1.5858709e-38
0.086678974 0.043462925 1.2107687 1.5582119e-38
0.0917622 0.044196807 1.2105844 1.5579598e-38
0.095656104 0.044284459 1.2107852 1.5487046e-38
0.10028222 0.044396002 1.2111949 1.5396651e-38
0.054005738 0.047334854 1.210212 1.6226785e-38
0.057719287 0.04659681 1.2122126 1.5766167e-38
0.062245637 0.047751985 1.2138876 1.613567e-38
0.067240603 0.046608754 1.2147137 1.632078e-38
0.073860258 0.045684174 1.2146451 1.7794461e-38
0.077304348 0.045631979 1.2140405 1.5950905e-38
0.081494153 0.045942686 1.2139717 1.5857992e-38
0.086581558 0.046400547 1.2138373 1.5489924e-38
0.091731906 0.046578228 1.2135065 1.5305893e-38
0.096469045 0.046419483 1.2131166 1.5030742e-38
0.10145839 0.045567233 1.2134358 1.4938909e-38
0.054645438 0.052084889 1.2106316 1.6870714e-38
0.057889689 0.051605865 1.212009 1.5489219e-38
0.062213533 0.052260179 1.2140503 1.6043473e-38
0.054392342 0.058371946 1.2100444 1.4840255e-38
0.05815427 0.056834672 1.2121586 1.5673972e-38
0.062533855 0.056803174 1.2143561 1.5951277e-38
0.053926494 0.062029142 1.2100462 1.4840977e-38
0.057720948 0.061960179 1.2119602 1.5489942e-38
0.06192169 0.061554641 1.2141396 1.6227866e-38
0.057708718 0.067346774 1.2121865 1.6136027e-38
0.061982445 0.066389538 1.2143834 1.6689204e-38
0.053899024 0.07344301 1.2104794 1.6689922e-38
0.057990983 0.072474167 1.2125672 1.6873593e-38
0.061411291 0.072376072 1.2142184 1.6412257e-38
-0.066036597 0.078791007 1.2119451 1.3074782e-38
-0.063776396 0.078302555 1.2111257 1.2613448e-38
-0.057669453 0.076583266 1.2103703 1.0310398e-38
-0.050349426 0.075112194 1.2102402 6.9960751e-39
-0.03700966 0.079429887 1.2123127 1.2427278e-38
-0.031532109 0.07901907 1.213073 1.1139792e-38
-0.027004732 0.079544038 1.213863 9.9444953e-39
-0.023003301 0.079998448 1.2134218 1.1507128e-38
0.054012179 0.077543855 1.2103422 1.5860517e-38
0.05758629 0.077462316 1.2119782 1.6228582e-38
0.062022038 0.077370286 1.214169 1.687359e-38
-0.068231553 0.082821466 1.2109475 1.2982233e-38
-0.03044741 0.081701614 1.2104243 1.1781916e-38
-0.026370272 0.080932423 1.2111384 1.1230904e-38
-0.022087757 0.080878913 1.2124437 1.049551e-38
-0.017544009 0.080661073 1.2128673 1.1967023e-38
0.058178175 0.081660546 1.2109512 1.5029318e-38
0.062218942 0.082793966 1.2120981 1.4936764e-38
0.066806838 0.083167993 1.2138662 1.5950552e-38
0.11179285 0.084479086 1.2145708 6.8246108e-39
0.11770298 0.084483646 1.2146977 6.9168078e-39
0.12213633 0.084600024 1.2148459 6.5440862e-39
-0.070095815 0.087944619 1.2102075 1.2981867e-38
0.062235415 0.085643485 1.210243 1.5490295e-38
0.067924164 0.086204313 1.2119982 1.3737496e-38
0.072447427 0.087314874 1.212508 1.3640981e-38
0.077184126 0.088597134 1.2125673 1.3914681e-38
0.081931651 0.089049667 1.2133697 1.4650078e-38
0.08652366 0.08909779 1.2139363 1.5478754e-38
0.090951011 0.088979334 1.2137905 1.6770938e-38
0.098027915 0.086634859 1.2121735 6.8249947e-39
0.10276578 0.086776756 1.2126275 7.0075867e-39
0.10729818 0.086832963 1.2123309 6.8224738e-39
0.11234821 0.087002009 1.2120358 6.6377224e-39
0.11736519 0.087238684 1.212257 6.545524e-39
0.12209271 0.087532245 1.2127395 6.7299082e-39
0.12639335 0.088053048 1.2134689 6.4508102e-39
0.13064989 0.089153349 1.2145188 6.174945e-39
0.081695609 0.09031333 1.211332 1.4749486e-38
0.086732917 0.090450317 1.2113863 1.4092583e-38
0.091841847 0.090458408 1.2119818 1.353508e-38
0.096529983 0.090118825 1.2128441 1.4919806e-38
0.11997276 0.090775691 1.2100115 5.7150585e-39
0.12355778 0.09146671 1.2107377 5.8054534e-39
0.12742732 0.092183344 1.2120429 5.9901992e-39
0.13189921 0.09289328 1.2140143 5.8972819e-39
0.0094395112 0.099336736 1.2132084 7.924127e-39
0.011114841 0.099148363 1.2100865 7.1883753e-39
0.12481059 0.09593717 1.2101065 5.2533502e-39
0.12807244 0.096993275 1.2113985 5.6214181e-39
0.1323671 0.097136579 1.2138709 5.7136067e-39
0.12474582 0.10379137 1.2100275 5.8983413e-39
0.12835898 0.10194281 1.2116157 5.5306532e-39
0.13207197 0.10206323 1.2139724 5.43738e-39
-0.063138373 0.10784388 1.2127779 1.2337231e-38
0.12390103 0.10808849 1.2103204 5.6257047e-39
0.12761605 0.10761917 1.2125471 5.6235551e-39
0.13146009 0.10715044 1.2147384 5.4384506e-39
-0.061433893 0.11223614 1.2124628 1.2245032e-38
-0.05940349 0.11458791 1.2103688 1.2245395e-38
0.12310663 0.11287861 1.2114805 5.9905313e-39
0.12642747 0.11224446 1.2135019 5.7161052e-39
-0.061402723 0.11616886 1.2141491 1.1968454e-38
-0.058845676 0.11830559 1.2116973 1.1968085e-38
0.11893743 0.11838078 1.2109921 7.8240084e-39
0.12253892 0.11697971 1.2128947 6.1742037e-39
0.1256879 0.11563604 1.2144214 5.4402386e-39
-0.060142003 0.1200995 1.2147365 1.2245395e-38
-0.057595547 0.12324683 1.2123326 1.1139052e-38
0.11323394 0.12473381 1.2100056 5.0657332e-39
0.11768219 0.12273765 1.2122328 6.9063752e-39
0.12154238 0.12104291 1.2142918 6.1702591e-39
-0.056247309 0.12781236 1.2125335 1.0862825e-38
0.11336225 0.12740348 1.2114552 7.7325345e-39
0.11648518 0.126976 1.2136031 6.0766313e-39
-0.05594464 0.13114107 1.2141072 9.7575691e-39
-0.053910926 0.13322674 1.2115425 1.0770627e-38
0.10807773 0.13398102 1.2110643 5.9865881e-39
0.11155184 0.1321217 1.2127148 6.1709765e-39
-0.053215615 0.13749602 1.2130328 1.0310734e-38
0.10455105 0.13889742 1.2111557 5.1607735e-39
0.10702643 0.13793267 1.2125949 5.898693e-39
-0.052378234 0.1413085 1.2137337 1.0034871e-38
0.099956185 0.14472538 1.211116 5.9869314e-39
0.10313465 0.14252549 1.2122974 5.7125067e-39
0.10598646 0.14255923 1.2147294 6.8127334e-39
-0.050837677 0.14663154 1.2137975 8.2867732e-39
0.097691923 0.14782594 1.2114924 6.2627952e-39
0.10149306 0.14729339 1.2141323 6.5383059e-39
-0.049816314 0.15165287 1.2131592 1.0585158e-38
0.093233563 0.15308113 1.2117559 8.102375e-39
0.097568415 0.15176664 1.2140527 6.9059996e-39
-0.047912218 0.15803877 1.2121809 1.067663e-38
0.088510677 0.15763259 1.2114071 1.0675561e-38
0.092356071 0.15738779 1.2139817 1.0124185e-38
-0.046309095 0.16283706 1.2118281 1.067627e-38
0.083568528 0.163396 1.2111998 1.2604107e-38
0.087020427 0.1623465 1.2130833 1.2053811e-38
0.090240389 0.16047457 1.214308 9.7546852e-39
-0.046136703 0.16685304 1.2138536 1.0584435e-38
-0.04433538 0.16779312 1.2104547 1.0491161e-38
0.077937573 0.16987653 1.2101029 1.4902509e-38
0.082180776 0.16725536 1.2120039 1.3708286e-38
0.085887663 0.16694418 1.2145066 1.3983786e-38
-0.045592323 0.1700601 1.2141193 1.030713e-38
-0.043305654 0.17233521 1.2119155 1.0492238e-38
0.078270495 0.17216343 1.2110786 1.4167106e-38
0.082275689 0.17105778 1.2134117 1.4443322e-38
-0.041771196 0.17730698 1.2123498 1.0769182e-38
0.076480657 0.17659357 1.2112157 1.3982719e-38
0.081962273 0.17603981 1.2140177 1.4166745e-38
0.047056288 0.0094318492 1.2155102 1.6041317e-38
0.044929098 0.01249897 1.2163545 1.723698e-38
0.046667751 0.013036611 1.2164468 1.6134947e-38
0.050426524 0.013855859 1.2153997 1.6226064e-38
0.043518327 0.018518632 1.2169377 1.6594489e-38
0.048240259 0.017149579 1.2165617 1.6686683e-38
0.052334376 0.018680699 1.2150919 1.650229e-38
0.041422047 0.022681508 1.2160685 1.6595568e-38
0.048118755 0.022219568 1.2159669 1.714766e-38
0.050872914 0.021463621 1.2155769 1.6503372e-38
0.046875242 0.027258221 1.2150416 1.5951999e-38
0.052263513 0.026275111 1.2150447 1.6503372e-38
0.068267368 0.047992337 1.2153282 1.632078e-38
0.072175615 0.047582779 1.2154851 1.6781754e-38
0.077171065 0.048133053 1.2159917 1.6781753e-38
0.082468614 0.048614383 1.2164488 1.6412607e-38
0.087459624 0.048870493 1.2167709 1.5767592e-38
0.092116781 0.049079899 1.2167892 1.5491722e-38
0.096577972 0.049028896 1.216633 1.4938908e-38
0.10117428 0.049388148 1.2175109 1.4847423e-38
0.067411996 0.052510422 1.2159188 1.6597726e-38
0.072210796 0.052205961 1.2170236 1.6874313e-38
0.077221923 0.052480899 1.2182685 1.6782473e-38
0.082010798 0.051801391 1.2187166 1.6321489e-38
0.087202489 0.050805777 1.2186123 1.5952345e-38
0.090855554 0.051019095 1.2189739 1.5584282e-38
0.095567353 0.050324403 1.2181927 1.567504e-38
0.064459965 0.05596571 1.2152426 1.7426769e-38
0.067395903 0.05746701 1.2165009 1.6873953e-38
0.072460115 0.057271723 1.2184933 1.7151258e-38
0.076848119 0.056050386 1.2197649 1.7243453e-38
0.064352892 0.061419934 1.2154176 1.7243097e-38
0.067373164 0.061964758 1.2168915 1.6966508e-38
0.071780413 0.062051151 1.2190464 1.7427845e-38
0.064032592 0.067506805 1.2156208 1.7335651e-38
0.067545086 0.066646159 1.2174573 1.7704073e-38
0.071061462 0.06699644 1.2192215 1.7612241e-38
-0.035192192 0.074606299 1.2182938 9.8523067e-39
0.063235402 0.071986996 1.2154874 1.7795908e-38
0.067630254 0.07208731 1.2176586 1.8072856e-38
0.070755549 0.071471885 1.2195405 1.8441996e-38
-0.031550065 0.076498553 1.2175871 9.6693518e-39
-0.0274971 0.077369802 1.2176366 8.2925396e-39
-0.022783764 0.078414053 1.2175946 9.1176227e-39
-0.018948449 0.079713471 1.2176472 8.1049267e-39
0.063488632 0.076156482 1.2154936 1.6043832e-38
0.066986158 0.077590838 1.2165736 1.7335287e-38
0.071466632 0.077855945 1.219049 1.6966144e-38
0.11869751 0.079856664 1.2198417 8.1059777e-39
0.12220809 0.079649106 1.2198693 9.0300808e-39
-0.016011357 0.080271594 1.2182938 9.8523067e-39
0.069314443 0.081934549 1.2161267 1.4567979e-38
0.073071457 0.082560435 1.2175971 1.6595559e-38
0.077142194 0.083245501 1.2192888 1.6133138e-38
0.10259353 0.083950736 1.2173508 8.1142846e-39
0.1075912 0.083049208 1.2176449 7.6536666e-39
0.1124575 0.082722485 1.217499 8.4837762e-39
0.11753508 0.082452461 1.2173808 7.838041e-39
0.12283561 0.082352467 1.2175398 8.0195442e-39
0.12776792 0.082473785 1.2180431 7.6486107e-39
0.13267015 0.083229095 1.218845 7.4631447e-39
0.13651411 0.083964624 1.2199059 5.9873209e-39
0.073609896 0.085398853 1.2155991 1.6044185e-38
0.077766165 0.086047642 1.2167277 1.6132416e-38
0.082446165 0.0868003 1.217545 1.6590509e-38
0.087288469 0.087339655 1.2176096 1.6682345e-38
0.092476122 0.086676739 1.2183343 1.640684e-38
0.097483769 0.085995555 1.2173941 1.2074018e-38
0.10292405 0.085215896 1.2183676 9.5858372e-39
0.10590531 0.086075753 1.2160887 9.4057577e-39
0.11741423 0.085023873 1.2150836 7.009393e-39
0.12086398 0.085030161 1.21553 7.0075783e-39
0.12796134 0.086348101 1.215394 7.5596521e-39
0.13224378 0.087579243 1.2161757 6.5429974e-39
0.13681884 0.087626249 1.2185043 6.44972e-39
0.13444372 0.092463389 1.2157418 5.8965588e-39
0.13742849 0.092422105 1.2174308 6.0834528e-39
0.14090547 0.092685841 1.2196095 5.990181e-39
0.13454603 0.097654477 1.2153147 5.7161094e-39
0.13789573 0.09745682 1.2173157 5.8050765e-39
0.14099962 0.097390495 1.2193506 5.7136039e-39
0.1341143 0.1033541 1.2156655 5.4391708e-39
0.13728271 0.10257457 1.2174706 5.528498e-39
0.14088675 0.10235687 1.2198296 5.5281393e-39
0.13285379 0.10798218 1.2161136 5.5317224e-39
0.13682805 0.10738339 1.2185307 5.5288567e-39
-0.063816532 0.11335272 1.2171587 1.2337231e-38
0.1290849 0.11280601 1.2155557 5.6235509e-39
0.13281542 0.11233322 1.2179583 5.6228348e-39
0.13575432 0.11129256 1.2193545 5.5292155e-39
-0.062651299 0.11794907 1.2179043 1.2245031e-38
0.12434084 0.11934079 1.2153503 5.8100889e-39
0.12746665 0.11764946 1.2168355 5.7143088e-39
0.13137177 0.11683444 1.2191477 5.6235523e-39
-0.061345324 0.12269948 1.2183594 1.2061357e-38
-0.059708349 0.1230969 1.2158537 1.2336501e-38
0.12305711 0.12262939 1.2162492 5.8979798e-39
0.12690888 0.12184324 1.2186687 5.6213985e-39
-0.060431965 0.12623917 1.2188134 1.1047219e-38
-0.05850574 0.12866226 1.2170838 1.1047208e-38
0.11884409 0.12838954 1.2162408 5.5277777e-39
0.1224483 0.12723568 1.218353 5.7110858e-39
0.12532388 0.12548403 1.2195027 5.7143102e-39
-0.057582252 0.13266352 1.2179425 1.0218539e-38
0.11387654 0.13379797 1.2155836 6.1738464e-39
0.11728362 0.1318858 1.2170943 5.6181797e-39
0.12041511 0.13173012 1.2194834 5.3441123e-39
-0.056477778 0.13634978 1.2183716 1.0311096e-38
-0.054665118 0.13883272 1.2160904 8.3768137e-39
0.11220533 0.13797498 1.2168099 6.1731261e-39
0.11653902 0.13658282 1.219451 5.9862363e-39
-0.055087727 0.14074972 1.2186903 1.0864266e-38
-0.054330159 0.14195308 1.2179449 9.2065631e-39
0.10797907 0.1426972 1.2164065 6.2635253e-39
0.11167858 0.14200406 1.2189977 6.2631665e-39
-0.053268574 0.14549106 1.2183849 1.0402934e-38
0.10381266 0.14816596 1.2166871 7.8258007e-39
0.1066875 0.14731613 1.2185148 7.8236469e-39
0.098545685 0.15317501 1.2159511 1.0031994e-38
0.10218871 0.15254372 1.2184139 9.5717429e-39
-0.050244514 0.15700102 1.2177651 1.0585158e-38
-0.04968252 0.15762538 1.216506 1.0401492e-38
0.094004594 0.15817229 1.2157754 1.1871935e-38
0.097600743 0.15713136 1.2178667 1.1410601e-38
0.10068196 0.15598445 1.2197151 1.4720984e-38
-0.048856203 0.16219722 1.2173996 1.0676992e-38
0.08901304 0.16356511 1.2151961 1.0215672e-38
0.092553891 0.16258539 1.2172502 1.3433133e-38
0.096418805 0.16114068 1.2194197 1.3708641e-38
-0.047633603 0.16681847 1.2184689 1.0769186e-38
0.088483773 0.16826178 1.2167652 1.3984145e-38
0.092435561 0.16711079 1.21912 1.4168534e-38
-0.047178127 0.17121172 1.2191263 1.0769182e-38
0.084705189 0.1731161 1.2155082 1.453444e-38
0.087035127 0.1720719 1.2167442 1.444296e-38
0.090999469 0.17160356 1.2192459 1.4257857e-38
0.089472562 0.17571147 1.2185951 1.4165666e-38
0.094654314 0.049194407 1.2213061 1.5214417e-38
0.097324468 0.048812643 1.2223772 1.5030388e-38
0.082806118 0.054353319 1.220647 1.6320409e-38
0.087019682 0.053666174 1.2214184 1.586051e-38
0.091880284 0.052611589 1.222389 1.5307692e-38
0.096445277 0.051885746 1.2218745 1.493962e-38
0.074236587 0.059785649 1.2200806 1.7426765e-38
0.077815622 0.058070958 1.2208335 1.7151616e-38
0.082597233 0.057324696 1.2223486 1.6414407e-38
0.086874135 0.056718003 1.2237562 1.6137101e-38
0.092022389 0.055595417 1.2247328 1.4939613e-38
0.074375823 0.062465221 1.2205247 1.733565e-38
0.078175791 0.06225403 1.2224 1.7520401e-38
0.081702784 0.061495598 1.2239358 1.7151254e-38
0.07350941 0.06671951 1.2208953 1.7888465e-38
0.077627182 0.067349397 1.2233164 1.8072496e-38
-0.035960063 0.071775466 1.2234861 7.2830694e-39
-0.032287624 0.073428176 1.2222713 7.0983236e-39
-0.028364291 0.074126989 1.2230173 7.9255591e-39
0.073078744 0.071920291 1.2210307 1.8441276e-38
0.076948144 0.073040299 1.2235116 1.8348718e-38
0.080464765 0.071481273 1.2248588 1.8533475e-38
-0.027234528 0.075514004 1.2212209 8.1088686e-39
-0.022943664 0.076035298 1.2224503 7.7415294e-39
-0.018078854 0.077196978 1.222886 7.5582172e-39
-0.013512367 0.078870825 1.2220901 8.1049267e-39
0.073729008 0.076708518 1.2208334 1.7703708e-38
0.07734137 0.077603199 1.2227099 1.7979573e-38
0.081475914 0.078901388 1.2245046 1.6501562e-38
0.1026786 0.07923805 1.224757 1.2077972e-38
0.10754049 0.078880399 1.2234856 1.1339683e-38
0.11252888 0.078412712 1.2228458 1.0879053e-38
0.11726723 0.078003302 1.2225052 1.0232948e-38
0.12256543 0.07744287 1.2227619 9.7708927e-39
0.12768747 0.07770317 1.222657 8.6638276e-39
0.1327298 0.078339979 1.2228265 8.2910921e-39
0.13670081 0.078846671 1.2236254 8.0141464e-39
0.078150176 0.08188884 1.2211617 1.7516433e-38
0.082564615 0.082510687 1.2224274 1.7422433e-38
0.087749712 0.083679155 1.2227312 1.7052569e-38
0.092106059 0.083639093 1.2229382 1.6039862e-38
0.097067684 0.082832597 1.2225878 1.4473624e-38
0.10223185 0.081629969 1.2224307 1.1615919e-38
0.10740373 0.080677144 1.2215339 1.078651e-38
0.1112805 0.080495909 1.2209154 1.2630413e-38
0.11601891 0.080090903 1.220607 1.4105163e-38
0.12900998 0.080506168 1.2203146 8.8442532e-39
0.13292158 0.080868512 1.220717 7.5556962e-39
0.13784897 0.082134083 1.2218268 7.9219536e-39
0.14231212 0.082847871 1.2237254 7.0025196e-39
0.14532991 0.083488047 1.2249463 5.9887405e-39
0.084227055 0.085032851 1.2206391 1.678067e-38
0.08689642 0.085930169 1.220338 1.7234078e-38
0.13883136 0.086094424 1.2203093 6.2699867e-39
0.14238407 0.087763146 1.2217529 6.1752827e-39
0.14635889 0.087656647 1.2242739 6.1749198e-39
0.14300124 0.092558533 1.2210439 5.9908957e-39
0.14655729 0.092457078 1.2234652 6.0827269e-39
0.143298 0.097678311 1.2209979 5.9894579e-39
0.1469921 0.097493984 1.2235932 5.8976252e-39
0.14294393 0.1029597 1.221525 5.7128878e-39
0.14635178 0.10247636 1.2238392 5.8965532e-39
0.13890748 0.10922413 1.2207125 5.6203349e-39
0.14187013 0.10724866 1.22194 5.5285022e-39
0.14562622 0.10661805 1.2244464 5.8040087e-39
0.13767007 0.11286382 1.2214122 5.5295756e-39
0.14220385 0.11196546 1.2241052 5.6206992e-39
-0.065496318 0.11913945 1.2232527 1.2337594e-38
0.13401535 0.11814606 1.2217031 5.6213971e-39
0.13729255 0.11703045 1.2232871 5.5288567e-39
0.1406917 0.11547267 1.2246442 5.6203405e-39
-0.063402638 0.12299438 1.2220694 1.2245025e-38
0.12889859 0.12380753 1.2212223 5.6203209e-39
0.13194409 0.12219334 1.2224826 5.5284882e-39
0.13624868 0.12093694 1.2246426 5.6210636e-39
-0.06069129 0.12964679 1.2214949 1.1784756e-38
0.12449224 0.12857756 1.220692 5.3433907e-39
0.12752318 0.12744874 1.2223351 5.5270589e-39
0.13077988 0.1268675 1.2243869 5.6203349e-39
-0.06031559 0.13215326 1.2228826 1.0679154e-38
-0.058325589 0.134737 1.220543 8.3768137e-39
0.12313716 0.13284153 1.2222788 5.3437578e-39
0.12652288 0.13140492 1.2239739 5.5277875e-39
-0.058566466 0.1368167 1.2228006 1.0127428e-38
0.1148869 0.13959399 1.22012 5.7111082e-39
0.11822474 0.13775082 1.2215223 5.5270673e-39
0.12195139 0.13721554 1.22412 5.3423159e-39
-0.056891743 0.14131288 1.2227259 1.0495487e-38
0.11326483 0.14375675 1.2214855 6.9957009e-39
0.11669046 0.14219058 1.2231832 6.2606666e-39
-0.055208962 0.14586273 1.2227721 1.0220344e-38
-0.054563649 0.14815788 1.2224736 1.0588046e-38
0.1093556 0.14787488 1.2210915 6.90422e-39
0.11213028 0.14709277 1.2228848 8.1909973e-39
0.11547153 0.14622575 1.2249765 5.1572142e-39
-0.053283084 0.15143028 1.222214 1.012707e-38
0.10409078 0.154588 1.2214936 1.140667e-38
0.1071391 0.15235013 1.2224598 1.0306072e-38
0.11029638 0.15032084 1.2234852 6.444325e-39
-0.05190362 0.15634039 1.2220346 1.0678795e-38
0.099488206 0.15891059 1.2205685 1.3342731e-38
0.10285556 0.15768772 1.2224573 1.2053451e-38
0.10574716 0.15537575 1.223428 1.1869425e-38
-0.050706413 0.16149694 1.2222329 1.0585519e-38
-0.049661804 0.16289116 1.2212253 1.0401492e-38
0.098222889 0.16337542 1.2219419 1.3708998e-38
0.10047596 0.1614735 1.2227639 1.4077055e-38
-0.049426205 0.1664784 1.222935 1.0769548e-38
0.093805254 0.16822027 1.2204795 1.4442603e-38
0.097155236 0.16700608 1.2225825 1.4444037e-38
0.09341874 0.17252015 1.2211208 1.4350766e-38
0.096180677 0.17152452 1.2230135 1.4351126e-38
0.092635237 0.17718346 1.2206644 1.4165665e-38
0.098037511 0.17524001 1.2246006 1.416602e-38
0.096518628 0.049117729 1.2284521 1.5214071e-38
0.10030288 0.048152331 1.2258607 1.5214417e-38
0.093112148 0.053082116 1.2268463 1.6135304e-38
0.096533254 0.052959654 1.2259612 1.521477e-38
0.088870943 0.058286719 1.2261074 1.659736e-38
0.092139013 0.057328537 1.2276151 1.6228215e-38
0.083963364 0.062231041 1.2254899 1.7427126e-38
0.087256134 0.062433884 1.2271185 1.6966144e-38
0.091881812 0.061681118 1.2292651 1.6136018e-38
-0.03775287 0.068471625 1.227429 6.9146526e-39
-0.032792963 0.069429576 1.2290111 7.3763398e-39
0.082600266 0.067592606 1.2263445 1.7979939e-38
0.087281078 0.067108706 1.2283593 1.770299e-38
0.091832966 0.067490973 1.2296846 1.7240925e-38
-0.037984334 0.070136599 1.2255161 5.6268075e-39
-0.032568205 0.071048863 1.2264004 6.3618474e-39
-0.027705602 0.071795002 1.2276305 7.0986823e-39
-0.022822581 0.073346771 1.2274034 7.2816359e-39
-0.018765617 0.074489877 1.2277567 8.0202631e-39
0.079378545 0.071614459 1.2251487 1.8626383e-38
0.08238174 0.072998837 1.2266394 1.8348361e-38
0.087499633 0.072425276 1.2285361 1.8163605e-38
0.092679411 0.072917908 1.2293979 1.7517151e-38
0.097743191 0.073584519 1.2292979 1.5211178e-38
0.10267662 0.073838077 1.2293122 1.5672154e-38
0.10754446 0.074016452 1.2287886 1.5395923e-38
0.1123387 0.073839344 1.228515 1.4750544e-38
0.1172197 0.073566698 1.2280118 1.216798e-38
0.12255058 0.073098361 1.227957 1.1060551e-38
0.12772553 0.072970375 1.2279129 9.8602072e-39
0.132664 0.072916627 1.228372 9.8566073e-39
0.13823317 0.073815562 1.2288125 9.5782253e-39
0.14268444 0.074521594 1.2297368 1.2152842e-38
-0.018302277 0.075354904 1.2260426 6.6366378e-39
-0.013855228 0.076223806 1.2270815 7.6518463e-39
0.082944989 0.076973662 1.2260668 1.807141e-38
0.087513663 0.077387802 1.2273058 1.7516794e-38
0.092518948 0.077389218 1.2276671 1.6594836e-38
0.097951673 0.077388316 1.2274458 1.5672519e-38
0.10259975 0.077088833 1.2269747 1.5211536e-38
0.1074179 0.076690234 1.2262914 1.3737128e-38
0.1116977 0.076130964 1.2258198 1.1892129e-38
0.11647818 0.07575687 1.2254387 1.1985033e-38
0.12084755 0.075500779 1.2253093 1.0231861e-38
0.12791041 0.075119495 1.225399 9.9524028e-39
0.13304064 0.075634725 1.2255399 8.844619e-39
0.13759769 0.076601215 1.2258885 9.4853094e-39
0.14245901 0.077143773 1.2274938 1.003668e-38
0.14687952 0.078287579 1.228982 8.6570005e-39
0.084516689 0.080292545 1.2253017 1.8254725e-38
0.087544382 0.080688477 1.2255149 1.6407924e-38
0.092374131 0.080629647 1.2257588 1.687143e-38
0.096993968 0.080681697 1.2256124 1.5026793e-38
0.14420047 0.080932193 1.2258329 6.9110443e-39
0.14757092 0.082509466 1.2269969 7.829758e-39
0.15159586 0.083592549 1.22887 6.2653316e-39
0.14900324 0.087602139 1.2259761 6.1738464e-39
0.15301342 0.087951168 1.2283849 6.1731303e-39
0.15534058 0.08897534 1.2296276 5.8987084e-39
0.14940658 0.091821931 1.2254608 6.1734848e-39
0.15250356 0.092944518 1.2273775 6.1724072e-39
0.15554634 0.092109405 1.2293409 6.1734862e-39
0.14960168 0.097750396 1.2255061 5.802201e-39
0.15259516 0.097733095 1.2275634 6.0794998e-39
0.15560386 0.098765552 1.2297078 7.8250804e-39
0.14887609 0.10345089 1.2258693 5.712169e-39
0.15190998 0.10266451 1.2279928 6.0784278e-39
0.14454645 0.10973353 1.2250057 5.7107411e-39
0.14762354 0.10848933 1.2265941 5.8036471e-39
0.15167458 0.10649123 1.2289199 5.712176e-39
0.14433405 0.113484 1.2263134 5.6206964e-39
0.1476908 0.11273336 1.2285458 5.6196188e-39
0.15041184 0.11056565 1.2293832 5.5306616e-39
0.1389043 0.1197594 1.2258136 5.3441039e-39
0.14297798 0.1178868 1.227608 5.5288595e-39
0.14563893 0.116734 1.2289675 5.6206908e-39
0.13415863 0.12405851 1.2250804 5.52597e-39
0.13678411 0.1225096 1.2259861 5.5277721e-39
0.14161746 0.1216498 1.2287053 5.4377331e-39
-0.0637317 0.12782617 1.2269278 1.1416345e-38
0.12972303 0.12939854 1.2251829 5.437394e-39
0.13244505 0.12821324 1.2263515 5.4363024e-39
0.13692033 0.12776966 1.2290804 5.4370142e-39
-0.062132731 0.13245954 1.2272019 1.1140845e-38
0.12810567 0.13302165 1.2260497 5.3437536e-39
0.13204931 0.13258138 1.2285534 5.3437522e-39
0.13540424 0.13093957 1.2298168 5.0660821e-39
-0.060556483 0.13731948 1.2272631 1.0495487e-38
0.12382718 0.13811368 1.2260153 5.8032912e-39
0.12737791 0.13747944 1.2281848 5.3437536e-39
0.13037638 0.13598382 1.2294267 5.8040087e-39
-0.058661234 0.14194082 1.2271574 1.0496206e-38
0.1185158 0.14369184 1.2256112 6.262826e-39
0.12254237 0.14241794 1.2277762 6.262826e-39
0.12657863 0.14054722 1.2295094 7.1826145e-39
-0.056993853 0.14674117 1.2269553 1.0588043e-38
0.11386751 0.14932777 1.225834 1.0121687e-38
0.11743212 0.14749597 1.2273393 7.915495e-39
0.12088392 0.14671606 1.2293593 8.9285581e-39
-0.055478793 0.15139647 1.2271047 1.0771713e-38
-0.054573037 0.15342355 1.2262733 1.0679516e-38
0.10946392 0.15413965 1.2255688 1.039719e-38
0.1126904 0.15262757 1.2272176 1.0857088e-38
0.116642 0.151035 1.2292171 1.0857811e-38
-0.053634044 0.15656361 1.2268493 1.0679158e-38
0.10813243 0.15776543 1.2269317 1.3064002e-38
0.11159672 0.15680334 1.2291483 1.2879976e-38
-0.051883668 0.16163275 1.226723 1.0678795e-38
0.10375562 0.1627216 1.2260647 1.3892669e-38
0.10643832 0.16162021 1.2277915 1.3800119e-38
-0.050587706 0.16589184 1.2268324 1.0678076e-38
-0.049641088 0.16815695 1.2259445 1.0401492e-38
0.10237007 0.16736734 1.2268538 1.4443679e-38
0.10642018 0.1668694 1.2297356 1.4535874e-38
-0.048927475 0.17060815 1.2268324 1.0678076e-38
0.098841786 0.17161576 1.2253752 1.4719903e-38
0.10188752 0.17188416 1.2270842 1.416602e-38
0.098775074 0.044821665 1.232291 1.5489945e-38
0.096385129 0.047941025 1.230798 1.5765444e-38
0.094069242 0.054702643 1.2303274 1.7242383e-38
0.096981309 0.052483361 1.2321236 1.5674332e-38
0.094267093 0.057930812 1.2305641 1.6964712e-38
0.096258864 0.057132218 1.2328125 1.6319338e-38
0.093458332 0.062858433 1.2309077 1.7333846e-38
0.097133286 0.062563851 1.2332852 1.7148733e-38
-0.032247607 0.067723349 1.2318031 6.9146526e-39
-0.027377596 0.068827175 1.2328734 7.1915926e-39
-0.023244627 0.069428489 1.2343011 6.916089e-39
0.092952468 0.067562319 1.2308095 1.7794826e-38
0.097657248 0.067065634 1.2326204 1.7425676e-38
0.10250495 0.068462573 1.2333854 1.6410082e-38
0.10723412 0.069138885 1.233732 1.6226403e-38
0.11160644 0.069236152 1.2338957 1.6409342e-38
0.1166624 0.069488816 1.2334746 1.5580296e-38
0.12175016 0.069077849 1.2334169 1.3458711e-38
0.12688537 0.068871595 1.233271 1.1428611e-38
0.13163258 0.068974406 1.2332735 9.9513238e-39
0.13653146 0.069492087 1.2334528 1.0777117e-38
0.14165413 0.06989868 1.2346032 1.270315e-38
-0.026612621 0.07047078 1.2307603 6.4533241e-39
-0.022523277 0.071166217 1.2314343 7.5578584e-39
-0.017949879 0.072500072 1.2314793 7.6518463e-39
0.092539482 0.071414426 1.2304902 1.7517514e-38
0.097964659 0.071745694 1.2307955 1.6502998e-38
0.10311911 0.071365267 1.2313591 1.6134207e-38
0.10808614 0.071345828 1.2315625 1.6225681e-38
0.11285732 0.071347758 1.2314125 1.5857253e-38
0.11754446 0.071224906 1.2313621 1.5672496e-38
0.12258155 0.070898816 1.2309861 1.2073627e-38
0.1280334 0.07085371 1.230571 1.1516119e-38
0.13307378 0.071274303 1.2304766 1.1608679e-38
0.13797499 0.071415059 1.2314389 1.0130316e-38
0.14222859 0.071849294 1.2324986 1.0680969e-38
0.14721636 0.073468193 1.2331485 9.3016496e-39
0.15163089 0.074515224 1.2342347 7.7379379e-39
0.14805925 0.076464564 1.2309504 8.3807836e-39
0.15269226 0.076980755 1.2330097 8.6580907e-39
0.15693723 0.07808923 1.2343705 6.9092688e-39
0.15330374 0.080893382 1.2309725 8.0137961e-39
0.15733932 0.082389876 1.2325335 6.4500871e-39
0.16159606 0.082934849 1.2344831 5.9919761e-39
0.15818201 0.087156668 1.2315878 5.9901796e-39
0.16235192 0.087446935 1.233784 6.0827326e-39
0.15869318 0.091911294 1.2312914 6.0794984e-39
0.16316354 0.092160188 1.2338856 6.3567957e-39
0.15826073 0.097104602 1.2312856 6.5379556e-39
0.16238299 0.096978813 1.2339003 7.1822362e-39
0.15482339 0.10377361 1.2304609 6.8152627e-39
0.15751728 0.10216063 1.2319058 7.4581028e-39
0.16093887 0.10215065 1.2342281 7.2737129e-39
0.15376002 0.10818001 1.2312526 6.1713451e-39
0.15689756 0.1070471 1.2331918 6.4461285e-39
0.14936872 0.11457898 1.2306864 5.7118187e-39
0.15215947 0.11250636 1.2320002 5.7110928e-39
0.15554723 0.11201006 1.234434 6.2631806e-39
0.14825685 0.11790729 1.2316684 5.6199734e-39
0.15172811 0.1166382 1.2338086 5.7121648e-39
0.14354563 0.12292714 1.230803 5.4380862e-39
0.14712101 0.1220752 1.2331409 5.6224747e-39
0.15074533 0.12024149 1.2349519 5.528491e-39
0.13917375 0.12856528 1.2309229 5.5302804e-39
0.14262922 0.12717369 1.2326754 5.4388023e-39
0.14558779 0.1263158 1.2344778 5.5324286e-39
-0.063947022 0.13323368 1.2314789 1.1416345e-38
0.13399076 0.13428852 1.2308232 6.077353e-39
0.13775019 0.13290873 1.2326393 5.7118018e-39
0.14145325 0.13137168 1.2343497 6.0798543e-39
-0.062315866 0.13784854 1.2317761 1.1140845e-38
0.12927565 0.1392563 1.2305765 5.2522754e-39
0.13275807 0.13797554 1.2321585 6.6287247e-39
0.13636196 0.13694504 1.2340153 6.8131089e-39
-0.060675912 0.14235172 1.231699 1.0588403e-38
0.12347793 0.14491954 1.2301461 5.5241904e-39
0.12797573 0.14275169 1.2317816 7.2737283e-39
0.13190408 0.14213583 1.234044 7.4559588e-39
-0.05874056 0.14751455 1.2314709 1.0772793e-38
0.12318113 0.14775632 1.231658 8.9281938e-39
0.12695611 0.14689799 1.2336314 9.2037017e-39
-0.056936949 0.15237185 1.2313478 1.0772074e-38
0.11794601 0.15326975 1.231622 1.16854e-38
0.12208383 0.15141818 1.2332276 1.0306441e-38
0.12558115 0.15026949 1.2349067 8.5605029e-39
-0.055562388 0.15665865 1.231755 1.0771711e-38
-0.054546207 0.15871865 1.2309593 1.0679516e-38
0.11345693 0.15825966 1.2314943 1.2420441e-38
0.11672408 0.156956 1.2331011 1.2879977e-38
0.12076998 0.15517688 1.2348061 1.1225515e-38
-0.05365748 0.16187969 1.2315367 1.0679157e-38
0.10912894 0.16321039 1.2307427 1.4719545e-38
0.11224302 0.16165344 1.2325357 1.3984507e-38
0.11582395 0.16055678 1.2345649 1.4627709e-38
-0.052082431 0.1663397 1.2316606 1.077135e-38
0.10737866 0.16656351 1.230973 1.4627349e-38
0.11103346 0.16662489 1.2335891 1.4627348e-38
0.10437515 0.17127191 1.2300156 1.4718823e-38
0.10772195 0.17056486 1.2322309 1.4350406e-38
0.096962556 0.046814784 1.2388594 1.631971e-38
0.098044872 0.053271115 1.2385377 1.6226429e-38
0.097936198 0.058132004 1.2367533 1.6226784e-38
0.099034935 0.062793411 1.2360985 1.6687764e-38
0.10193519 0.063517086 1.2374127 1.7240203e-38
0.1068534 0.064579904 1.2389075 1.5948734e-38
0.11312197 0.064467221 1.2388316 1.6964315e-38
0.12954383 0.06461852 1.2399514 6.3593321e-39
0.13353847 0.064968526 1.2397743 7.0000099e-39
-0.026742339 0.066975072 1.2361771 6.9146526e-39
-0.022034213 0.068132818 1.2368325 9.1258736e-39
0.10349591 0.066052079 1.2359872 1.7241641e-38
0.10813952 0.066989511 1.2365369 1.6779214e-38
0.11294045 0.067247726 1.2369143 1.6779565e-38
0.11741088 0.067255512 1.2368815 1.7148341e-38
0.12227877 0.066384405 1.2373726 1.4381023e-38
0.12740675 0.066263944 1.2373352 1.1891026e-38
0.13256449 0.06660562 1.2370664 1.0504862e-38
0.137565 0.067071646 1.2373618 9.4874758e-39
0.1423225 0.068109669 1.2375736 8.6595186e-39
0.14693798 0.068859063 1.2384434 8.8449861e-39
0.15193491 0.069625251 1.2394574 7.0986866e-39
0.14452313 0.070559651 1.2352819 8.3832947e-39
0.14774284 0.070859186 1.2361991 8.1059973e-39
0.15225036 0.071962766 1.2370906 7.7400959e-39
0.1568072 0.072986811 1.2379671 7.2809226e-39
0.1625852 0.074165575 1.23906 6.2696476e-39
0.15808876 0.076722756 1.2357242 6.6366364e-39
0.16257767 0.077029288 1.237442 6.269293e-39
0.16732314 0.077914722 1.2388014 6.0856122e-39
0.17139366 0.079775974 1.2394576 6.4579933e-39
0.16322239 0.081723712 1.23569 6.268207e-39
0.16724172 0.082457855 1.2371821 6.0834528e-39
0.17192227 0.082351968 1.2390687 6.0855996e-39
0.17520715 0.084397495 1.239889 5.9916271e-39
0.16740109 0.087286897 1.23631 6.2663965e-39
0.17271678 0.086950116 1.2386254 6.2671084e-39
0.17565392 0.085629955 1.2398145 6.3611033e-39
0.16767471 0.092148252 1.2363839 7.0918342e-39
0.17217045 0.092164502 1.2386075 6.6333756e-39
0.17507428 0.091479614 1.2397412 6.35966e-39
0.16446471 0.097900689 1.2354379 8.4679261e-39
0.16751611 0.097457364 1.2371123 7.5510103e-39
0.17107989 0.09762691 1.2391859 7.2740675e-39
0.16341357 0.10315487 1.2363837 7.8258007e-39
0.16723222 0.10204571 1.238447 7.9172747e-39
0.15912579 0.10893991 1.2359227 7.9162041e-39
0.16241053 0.10754592 1.23764 7.825086e-39
0.16523847 0.10763554 1.2398074 7.0889713e-39
0.15792471 0.11279517 1.2369777 6.8131117e-39
0.16109464 0.11188368 1.2391058 7.3648394e-39
0.15323873 0.11819492 1.2361064 5.8951211e-39
0.15688556 0.11743782 1.2388413 6.4464886e-39
0.14892848 0.12431092 1.2360502 5.7125221e-39
0.15226601 0.1224753 1.237813 5.6217586e-39
0.1558947 0.12073148 1.2399157 5.7100096e-39
0.14459111 0.12961669 1.2357389 5.5327902e-39
0.14741226 0.12812655 1.2371308 5.5320685e-39
0.15165608 0.12624866 1.2396554 5.7153822e-39
0.1433032 0.13286674 1.2367043 6.1709723e-39
0.14664641 0.13205197 1.2389255 5.8986944e-39
-0.064254656 0.13809635 1.2359256 1.114085e-38
0.13868383 0.13806129 1.2363309 6.8138222e-39
0.1422582 0.1369023 1.2383293 6.9074485e-39
-0.062621109 0.14308324 1.2366344 1.086535e-38
0.13374972 0.14377558 1.2362938 8.651251e-39
0.13711174 0.14185609 1.2374539 8.9274735e-39
0.1414053 0.14035322 1.2397865 5.2490342e-39
-0.061178766 0.14759332 1.2372407 1.0864991e-38
-0.059784912 0.14940867 1.2354822 1.0957544e-38
0.12874655 0.14881501 1.2360089 1.1134753e-38
0.13255642 0.14689387 1.2373157 9.9380241e-39
0.13556501 0.14657363 1.239077 1.4902864e-38
-0.058896501 0.15272726 1.2363564 1.0956826e-38
0.12306732 0.15377039 1.2354579 1.4444761e-38
0.1275215 0.1524981 1.2374625 1.2881055e-38
0.13191818 0.15103088 1.2393471 1.3800845e-38
-0.057057127 0.15788828 1.2364612 1.086427e-38
0.11926198 0.1587317 1.2359548 1.490394e-38
0.12256417 0.15684578 1.2369099 1.3800125e-38
0.12672755 0.15642843 1.2393423 1.4536242e-38
-0.055419199 0.16222106 1.2363386 1.077135e-38
-0.054677453 0.16356318 1.2359078 1.1049376e-38
0.11703148 0.1625381 1.2365996 1.462771e-38
0.12202641 0.16122898 1.2392218 1.508761e-38
0.11258249 0.16682962 1.2355981 1.4811021e-38
0.11702032 0.16695851 1.2382561 1.4534793e-38
0.096037753 0.048026893 1.2405287 1.6134951e-38
0.09862721 0.053719558 1.2421461 1.6227151e-38
0.099591091 0.057492077 1.2412069 1.5673621e-38
0.10129549 0.058612101 1.2431365 1.6226062e-38
0.1032256 0.062049098 1.2413858 1.6872512e-38
0.10756104 0.063391149 1.2422503 1.6872138e-38
0.11141115 0.063875929 1.2427938 1.7331662e-38
0.11735015 0.064008661 1.2413465 1.7332362e-38
0.12225457 0.063475594 1.2424324 1.5948349e-38
0.12766667 0.063742712 1.2419192 1.3458347e-38
0.13269085 0.063669808 1.2425294 9.952763e-39
0.13798285 0.063822106 1.2433658 7.2823463e-39
0.14280619 0.064548358 1.2439011 7.0061196e-39
0.11331607 0.065629698 1.2406709 1.7427105e-38
0.12522259 0.065190308 1.2404728 1.0042089e-38
0.13814986 0.065267377 1.2406161 8.0152366e-39
0.14271107 0.065842204 1.2412159 8.6591613e-39
0.14732663 0.066326723 1.2424427 7.9255535e-39
0.15226802 0.067550369 1.2423373 7.742607e-39
0.15669899 0.068544142 1.2425486 7.1912381e-39
0.16194893 0.067733116 1.2439839 6.5491141e-39
0.16634864 0.069845662 1.2433653 6.1788939e-39
0.15859553 0.070890903 1.2403443 6.7338655e-39
0.16206023 0.071242608 1.2411696 6.4540444e-39
0.16720627 0.072369181 1.2418363 6.1785351e-39
0.171745 0.0722261 1.2432084 5.9916271e-39
0.16827904 0.076109111 1.2407116 6.1788939e-39
0.17259803 0.077005804 1.2414736 5.9930565e-39
0.17737979 0.078299172 1.242473 6.0841759e-39
0.17437485 0.081710681 1.2411332 5.805438e-39
0.17758152 0.085402571 1.2407796 6.0841605e-39
0.17764807 0.092383601 1.240849 6.3553552e-39
0.17377514 0.097874604 1.2407293 7.7318114e-39
0.17512126 0.098565102 1.2417574 7.1825893e-39
0.16901974 0.10345608 1.2402256 8.1920637e-39
0.17185086 0.10271718 1.2417418 8.6519544e-39
0.17636169 0.10289659 1.2442956 8.4664996e-39
0.16463499 0.108492 1.2401121 5.9844511e-39
0.16776098 0.10760041 1.2416357 8.2849782e-39
0.17146134 0.10753863 1.2439712 8.6523146e-39
0.16331311 0.11300805 1.2415565 7.0886182e-39
0.16621569 0.11179332 1.2429812 7.8236497e-39
0.15883309 0.11803956 1.2410288 6.4454152e-39
0.16155012 0.11727057 1.2428237 6.6287275e-39
0.15374887 0.12490948 1.2408371 5.8944064e-39
0.15702321 0.12251826 1.242265 5.9873153e-39
0.16124997 0.12035163 1.2447114 5.8072247e-39
0.15274051 0.12803133 1.2418315 5.6221145e-39
