# .PCD v0.7 - Point Cloud Data file format
VERSION 0.7
FIELDS x y z rgb
SIZE 4 4 4 4
TYPE F F F F
COUNT 1 1 1 1
WIDTH 1042
HEIGHT 1
VIEWPOINT 0 0 0 1 0 0 0
POINTS 1042
DATA ascii
0.27270722 0.022687839 1.1181103 1.7885222e-38
0.27781144 0.022342479 1.1176116 1.7977779e-38
0.2826618 0.022537585 1.1165131 1.7976336e-38
0.28618234 0.022828331 1.1153522 1.7883419e-38
0.22870643 0.0291289 1.1193513 1.4086065e-38
0.23243879 0.028006017 1.1180618 1.4086427e-38
0.23744057 0.027709851 1.1167319 1.4179706e-38
0.2423446 0.027502054 1.1162851 1.4738295e-38
0.24755073 0.02751358 1.1163222 1.5850059e-38
0.25236273 0.027617812 1.1166446 1.6777067e-38
0.25737411 0.02780458 1.1170667 1.7240566e-38
0.2628063 0.027515071 1.1175318 1.7425683e-38
0.26777878 0.027410366 1.1177334 1.7610076e-38
0.27275097 0.027574005 1.1177319 1.7979225e-38
0.27776983 0.027181473 1.1172507 1.8069976e-38
0.28281251 0.027433338 1.1161247 1.7977056e-38
0.22399637 0.033536982 1.1198875 1.4177909e-38
0.22770838 0.032574248 1.1183314 1.4177905e-38
0.23241486 0.032478057 1.1166056 1.408679e-38
0.23740152 0.032501046 1.1155236 1.4458823e-38
0.24271894 0.032021858 1.1153065 1.4737935e-38
0.24755692 0.032390483 1.1154418 1.5851864e-38
0.25269791 0.032961503 1.1158447 1.6870706e-38
0.25738877 0.032583605 1.1165019 1.7240569e-38
0.26262757 0.032597166 1.1170847 1.7333127e-38
0.2678012 0.032725595 1.1174341 1.7610439e-38
0.27258337 0.032279134 1.1175874 1.7979223e-38
0.27759549 0.032153942 1.1171896 1.8070336e-38
0.28255719 0.032571007 1.1161186 1.7884861e-38
0.28570616 0.033111595 1.1150675 1.8067809e-38
0.21945618 0.03858947 1.1188521 1.4177549e-38
0.22344407 0.036772497 1.1181002 1.4177909e-38
0.2274878 0.03681127 1.1163291 1.4086071e-38
0.23165616 0.035884261 1.1154355 1.4177903e-38
0.24954541 0.036854029 1.1150416 1.705438e-38
0.25290638 0.037688326 1.1154009 1.6962184e-38
0.25769109 0.037571639 1.1161497 1.7056539e-38
0.26246658 0.037315514 1.1168381 1.733313e-38
0.26756993 0.037709262 1.1174061 1.7517884e-38
0.27232915 0.037793096 1.1177648 1.7979225e-38
0.2776444 0.037416101 1.1173637 1.7978139e-38
0.28236896 0.037326612 1.1163692 1.7977418e-38
0.2856257 0.037542988 1.1153129 1.7884496e-38
0.22221737 0.041002605 1.1154555 1.4177906e-38
0.25353527 0.042398289 1.1151279 1.7330972e-38
0.25741935 0.042106681 1.1159408 1.7332406e-38
0.26213348 0.042209383 1.1168998 1.7517165e-38
0.26695344 0.042343501 1.1176268 1.7609363e-38
0.27243707 0.042734839 1.1181477 1.7886672e-38
0.27765238 0.042835928 1.1179236 1.7978139e-38
0.28264174 0.042679355 1.1168849 1.7885581e-38
0.28623179 0.042201739 1.1155407 1.7884496e-38
0.254605 0.04694612 1.1153178 1.7147664e-38
0.25730816 0.047188144 1.1159511 1.7516803e-38
0.26219639 0.047274917 1.1172358 1.742461e-38
0.26727256 0.048136655 1.1183597 1.7424974e-38
0.27227211 0.047257874 1.1188414 1.760936e-38
0.27741963 0.047610104 1.118745 1.7518246e-38
0.28254265 0.047461107 1.1177201 1.7793744e-38
0.28692442 0.047659453 1.1161605 1.7700825e-38
0.25425154 0.0518362 1.1151781 1.7148019e-38
0.25727975 0.05221929 1.1163101 1.7332414e-38
0.26204056 0.052684311 1.1178812 1.7332777e-38
0.26721317 0.053159434 1.1193602 1.7239144e-38
0.27221799 0.051370125 1.1196257 1.7332417e-38
0.27772087 0.052035786 1.1197318 1.7239856e-38
0.28297859 0.052152794 1.1187152 1.7516798e-38
0.28769192 0.052344307 1.1169533 1.7516794e-38
0.29113588 0.054113854 1.1156757 1.7422439e-38
0.25404653 0.057167504 1.1154917 1.7149466e-38
0.2578705 0.057518099 1.1172496 1.7240583e-38
0.26221862 0.05769166 1.1189927 1.7055831e-38
0.26684639 0.055699319 1.1197447 1.7331701e-38
0.28356194 0.055673376 1.1195607 1.779374e-38
0.28725463 0.05724873 1.1187258 1.7147653e-38
0.29219735 0.058040019 1.1164351 1.677779e-38
0.25324216 0.062346641 1.115911 1.7149107e-38
0.25745565 0.062697858 1.1181897 1.7056553e-38
0.26094288 0.060765021 1.1195235 1.6962917e-38
0.28911051 0.060980752 1.1192988 1.6593404e-38
0.29270586 0.062534638 1.1180018 1.6684515e-38
0.29638383 0.063004017 1.1157951 1.6132425e-38
0.24989197 0.069450349 1.1157939 1.7148747e-38
0.25238809 0.067380041 1.1167374 1.6872883e-38
0.25637281 0.067505017 1.1191654 1.6964719e-38
0.29386777 0.066682704 1.1192633 1.659196e-38
0.29743904 0.067529611 1.1172469 1.62239e-38
0.30056959 0.069008425 1.115603 1.6132783e-38
0.24892333 0.072858527 1.1162868 1.6688852e-38
0.25252891 0.072054274 1.1185458 1.6781408e-38
0.29827592 0.071916707 1.1189647 1.6131706e-38
0.30201235 0.072733484 1.1165 1.6132065e-38
0.24435021 0.078960449 1.1159692 1.6504093e-38
0.24746342 0.07710471 1.1171954 1.6595932e-38
0.25106826 0.076551221 1.1196704 1.6689208e-38
0.30302018 0.077371426 1.1183103 1.6132425e-38
0.30629826 0.078003041 1.1158971 1.622426e-38
0.23910844 0.083102077 1.115188 1.5119357e-38
0.24261537 0.082714118 1.1169915 1.6409732e-38
0.24667335 0.081689969 1.119085 1.6594125e-38
0.30417776 0.081030436 1.1196663 1.6040231e-38
0.30797493 0.081971131 1.1168061 1.6132785e-38
0.20863087 0.087290905 1.1196865 1.113944e-38
0.2118264 0.089170985 1.1174083 1.1972417e-38
0.21626315 0.089654654 1.1153477 1.1512169e-38
0.22796611 0.08985544 1.1153524 1.4567263e-38
0.23216565 0.088582657 1.1157258 1.38268e-38
0.23733094 0.087658286 1.11747 1.5026795e-38
0.24162348 0.085816056 1.1184968 1.640937e-38
0.30963069 0.087338671 1.1187196 1.604167e-38
0.31204587 0.086250082 1.1157199 1.6132426e-38
0.21354938 0.090848774 1.1183817 1.1697625e-38
0.21761006 0.09240371 1.117859 1.0777482e-38
0.22246973 0.092926301 1.117618 1.0873646e-38
0.2272213 0.092380099 1.1175094 1.1152757e-38
0.23227967 0.0912477 1.1181161 1.3275069e-38
0.23622964 0.091155097 1.1198525 8.2093081e-39
0.31287602 0.091328114 1.1189572 1.6132428e-38
0.2237951 0.095217004 1.1195923 1.2158955e-38
0.22840562 0.095021397 1.1199639 7.1044711e-39
0.17784026 0.12951933 1.1181265 6.3539146e-39
0.18197295 0.12950146 1.1181366 5.9880272e-39
0.18703233 0.12949143 1.1183906 5.9880272e-39
0.19250438 0.12973237 1.1190863 5.5270617e-39
0.25496423 0.12896465 1.1160415 6.9172324e-39
0.2586036 0.12902497 1.1158609 6.4569801e-39
0.26141453 0.12916932 1.1170056 6.4569619e-39
0.26632768 0.12907693 1.1178886 6.5477268e-39
0.16805217 0.13382253 1.1174626 6.1698849e-39
0.17226133 0.13153009 1.1173362 5.9865755e-39
0.17696176 0.13048729 1.1168218 5.7114403e-39
0.18317229 0.13060006 1.1163981 7.9237543e-39
0.18784106 0.13071857 1.1171373 9.3970711e-39
0.19256233 0.13094726 1.1176207 1.0223944e-38
0.19749369 0.13152646 1.117626 1.0865715e-38
0.20273346 0.13187404 1.1177508 1.1508201e-38
0.20791948 0.13201207 1.1178106 1.021964e-38
0.21300469 0.13217828 1.1176845 8.4722631e-39
0.21762568 0.13235079 1.1178118 7.5532033e-39
0.22209264 0.13335548 1.117303 7.9223432e-39
0.22634353 0.13400932 1.1174574 8.5637483e-39
0.26388869 0.13018453 1.1167257 7.2863597e-39
0.26813975 0.13101768 1.11647 6.9143415e-39
0.2727226 0.13190961 1.1171525 6.6381092e-39
0.27739364 0.13315479 1.1179166 6.5430227e-39
0.28164631 0.13424551 1.1186316 7.3688149e-39
0.16372547 0.13824351 1.1180949 5.9858622e-39
0.16629115 0.13631016 1.1163191 5.985858e-39
0.22701564 0.1360615 1.1158512 7.9187628e-39
0.23155653 0.13728422 1.1171553 8.7492312e-39
0.23511001 0.13883199 1.117994 9.1187213e-39
0.27995414 0.13591321 1.1154069 6.1735255e-39
0.28326219 0.13610311 1.116962 7.4599259e-39
0.28743675 0.13749726 1.1176434 6.910701e-39
0.29169637 0.13877121 1.1184582 6.7288236e-39
0.29588094 0.1399799 1.1194241 6.5487344e-39
0.16247554 0.14244752 1.1175604 5.9855035e-39
0.28900686 0.1420224 1.1153048 6.9099807e-39
0.29265821 0.14209934 1.1169018 5.901228e-39
0.29718286 0.14287058 1.1188581 6.2692832e-39
0.30011809 0.14380278 1.1196789 5.9991535e-39
0.16193853 0.14788984 1.1175371 5.8933078e-39
0.29313582 0.14710657 1.1158524 5.8086694e-39
0.29769191 0.14747265 1.1180441 5.8097428e-39
0.30060899 0.14735973 1.119545 5.6267935e-39
0.16241755 0.15194182 1.1173618 5.8936596e-39
0.29343271 0.15230665 1.1160491 5.6224859e-39
0.29762068 0.15212131 1.1181289 5.8990672e-39
0.30096567 0.15226796 1.1197453 5.8990644e-39
0.16334154 0.15740179 1.1171005 5.8940141e-39
0.28867093 0.1587985 1.1153145 5.4363066e-39
0.29268563 0.15723164 1.1165417 5.7136053e-39
0.29741448 0.15689084 1.1188612 5.8061583e-39
0.16406225 0.16246615 1.1176138 5.8943728e-39
0.28466401 0.16427414 1.1154062 5.5267029e-39
0.28768164 0.16299221 1.1161598 5.437024e-39
0.29208833 0.16236772 1.1181215 5.6203377e-39
0.29584536 0.16091688 1.1191219 5.715399e-39
0.16467258 0.16675851 1.1186543 5.80218e-39
0.1654238 0.16799641 1.1163843 5.9858496e-39
0.2833564 0.16774732 1.1161797 5.4384491e-39
0.28768978 0.16727513 1.1179998 5.5288595e-39
0.29200098 0.16609424 1.1195345 5.2522754e-39
0.16579789 0.17214577 1.1174573 6.0766089e-39
0.2748217 0.17450835 1.11523 5.7161164e-39
0.27782053 0.17340043 1.1162276 5.7146717e-39
0.28218439 0.17204301 1.1176488 5.5292084e-39
0.28691253 0.171432 1.1195924 5.2519153e-39
0.16650017 0.17749193 1.1171321 6.9031255e-39
0.26934066 0.17901234 1.1150777 6.9949849e-39
0.27327928 0.17760459 1.1161935 6.5383185e-39
0.27755803 0.17703071 1.1179969 6.6305113e-39
0.28142351 0.17628537 1.1195247 5.6181713e-39
0.16686551 0.18248755 1.1175845 8.7409047e-39
0.26406449 0.18486287 1.1154293 3.9619038e-39
0.26790243 0.18300852 1.1163812 7.364475e-39
0.27201834 0.18212999 1.1179464 7.3641163e-39
0.27601022 0.18107009 1.1193081 6.3535699e-39
0.16750096 0.18808398 1.1177685 1.0486848e-38
0.25904459 0.18910709 1.1152333 6.2646015e-39
0.26289779 0.18790181 1.1164395 5.9855091e-39
0.26732263 0.18704854 1.1181662 6.9960555e-39
0.27085644 0.18594556 1.1193724 7.5474272e-39
0.16816963 0.1929642 1.1179059 1.1132208e-38
0.2540834 0.19434616 1.1156121 5.1636531e-39
0.25756258 0.19272314 1.1163802 5.8039905e-39
0.26192781 0.19252582 1.1183395 6.1695402e-39
0.26564914 0.19081241 1.119294 7.8243672e-39
0.16914701 0.19876158 1.1178372 1.1225121e-38
0.24881116 0.1985843 1.1156173 5.9865867e-39
0.2524184 0.19765119 1.1167147 6.6319449e-39
0.25719598 0.19729994 1.1187078 6.261733e-39
0.26071298 0.19640775 1.1198207 5.7221995e-39
0.16929854 0.20327516 1.1174759 1.1502783e-38
0.17070553 0.20331943 1.1173067 1.1410586e-38
0.24261737 0.20347835 1.1159643 5.9858692e-39
0.24744223 0.20250399 1.1174204 8.1005953e-39
0.25234628 0.20138781 1.118911 8.0094773e-39
0.16975473 0.20770435 1.117295 1.1225841e-38
0.17148226 0.2080192 1.1164887 1.1871921e-38
0.23292966 0.20847695 1.115301 8.7470395e-39
0.2373486 0.20815055 1.1168706 9.3877244e-39
0.24243025 0.20691152 1.1181636 1.0398271e-38
0.24652886 0.20601955 1.119357 1.0030211e-38
0.17250723 0.21261624 1.1171455 1.1779368e-38
0.22753736 0.21253467 1.1154081 1.0216761e-38
0.2323527 0.21232383 1.1175667 1.0308593e-38
0.23697793 0.21084651 1.1186233 1.0401148e-38
0.17350625 0.21585658 1.116743 1.1779368e-38
0.17605443 0.21767719 1.1172584 1.2239983e-38
0.21987483 0.2192294 1.1160036 1.3434956e-38
0.22296125 0.21757002 1.1164303 1.2696671e-38
0.22764529 0.2173281 1.1186646 1.3617178e-38
0.23187284 0.21536075 1.1192883 1.2605914e-38
0.17784299 0.2209066 1.1159827 1.2331817e-38
0.18101317 0.22322908 1.1173478 1.2515849e-38
0.21799511 0.22186559 1.1169305 1.3430989e-38
0.22574955 0.22189434 1.1199409 1.3707569e-38
0.17993405 0.2255193 1.1165671 1.251657e-38
0.19472232 0.22706968 1.1150943 1.0763818e-38
0.20930256 0.22658287 1.1164862 1.3892324e-38
0.26726893 0.0042925701 1.123755 1.621883e-38
0.25415137 0.0090083042 1.1208857 1.787981e-38
0.25754106 0.0072887158 1.1217133 1.7696853e-38
0.2639364 0.0076731234 1.1219219 1.6780295e-38
0.26760644 0.0079943221 1.122098 1.7513909e-38
0.27250147 0.0076079168 1.1218016 1.6867451e-38
0.27718028 0.0074154935 1.121358 1.7697577e-38
0.28331369 0.0062422059 1.1205359 1.7421352e-38
0.2302334 0.014839685 1.1214116 1.3994227e-38
0.23518319 0.013541066 1.1204009 1.390311e-38
0.24328335 0.01332278 1.1200151 1.7049685e-38
0.24878925 0.011317305 1.120558 1.7418829e-38
0.25369754 0.011122603 1.1205715 1.7696853e-38
0.25808549 0.012146526 1.1204317 1.751642e-38
0.26293847 0.012799823 1.1205165 1.6868538e-38
0.26711211 0.012770983 1.1204003 1.7422435e-38
0.27277794 0.011069836 1.1204919 1.7606107e-38
0.27776933 0.010301358 1.1201226 1.7884872e-38
0.22906475 0.015254277 1.1218554 1.3993868e-38
0.23108463 0.019384403 1.1204486 1.3994227e-38
0.22758166 0.023002088 1.1217971 1.399387e-38
0.23046209 0.021630384 1.1206756 1.4177548e-38
0.22380775 0.028107848 1.1229153 1.3993868e-38
0.22769809 0.026286028 1.1207416 1.3993871e-38
0.22287045 0.032425571 1.1216134 1.4085709e-38
0.2253888 0.030906927 1.1205375 1.4086062e-38
0.21935424 0.036984846 1.1205539 1.4085715e-38
0.2724629 0.05362875 1.120295 1.72395e-38
0.27710325 0.052803606 1.1200347 1.7333499e-38
0.28173232 0.054974493 1.1200283 1.6689575e-38
0.26408514 0.059661862 1.1202021 1.714803e-38
0.26731172 0.058517076 1.1209171 1.6962191e-38
0.27218786 0.057049401 1.1211981 1.7147304e-38
0.27799174 0.05734954 1.1213198 1.7055824e-38
0.28200248 0.057264145 1.1205784 1.7239851e-38
0.28540328 0.059041232 1.1201506 1.7424956e-38
0.26288152 0.063136466 1.1210152 1.6962914e-38
0.26719019 0.062441882 1.1221902 1.6870716e-38
0.2724933 0.062277131 1.1231472 1.6870356e-38
0.27728793 0.062170178 1.1231937 1.6962548e-38
0.28216574 0.062225651 1.122366 1.7238765e-38
0.28695765 0.063048273 1.1211571 1.6961822e-38
0.29062331 0.06436526 1.1200826 1.7053657e-38
0.25838569 0.067675158 1.1206114 1.6871086e-38
0.26227933 0.067464165 1.1224667 1.687144e-38
0.26721412 0.0669799 1.124176 1.677852e-38
0.27231392 0.065582238 1.1246028 1.6778158e-38
0.27759197 0.065368727 1.1246356 1.6777793e-38
0.28292179 0.066676781 1.1241974 1.7055101e-38
0.28767437 0.067900687 1.12308 1.6684877e-38
0.29224369 0.06812501 1.1209247 1.6592681e-38
0.25411576 0.073843502 1.1204947 1.6687768e-38
0.25781655 0.072704375 1.1225096 1.6779966e-38
0.26198974 0.071109451 1.1240853 1.67796e-38
0.2888777 0.070751235 1.1240329 1.6777074e-38
0.29262874 0.072601415 1.1230468 1.640829e-38
0.29661995 0.073457725 1.1210333 1.6315733e-38
0.24941328 0.079849564 1.1208873 1.6688138e-38
0.25280482 0.077655666 1.1216421 1.6596654e-38
0.25650349 0.076759212 1.1238146 1.6596654e-38
0.29448459 0.075697392 1.1237228 1.6224981e-38
0.29759768 0.077548921 1.1227361 1.6131704e-38
0.3010276 0.078107551 1.1204021 1.6132065e-38
0.2477376 0.083446145 1.1213441 1.6320068e-38
0.25205705 0.081908137 1.1235436 1.6503734e-38
0.29878968 0.080715917 1.1238101 1.6040228e-38
0.30199003 0.082372487 1.1223682 1.6040949e-38
0.30634853 0.084860265 1.1200781 1.6132785e-38
0.20792735 0.088573828 1.1223137 1.3350306e-38
0.23823231 0.089959033 1.1200038 1.419849e-38
0.24334307 0.087744772 1.1211213 1.6408652e-38
0.24728929 0.087240048 1.1234585 1.6593766e-38
0.25040609 0.085341394 1.1245517 1.6593401e-38
0.30407414 0.086530067 1.1234889 1.604239e-38
0.30707157 0.08757811 1.121544 1.6133505e-38
0.20883743 0.09098234 1.1230783 1.1144818e-38
0.21277888 0.093277104 1.1217541 1.095864e-38
0.21732822 0.094727457 1.1204939 1.0139322e-38
0.22908372 0.094551727 1.1201845 1.4283079e-38
0.23308508 0.094155386 1.1207547 1.1709551e-38
0.2375816 0.092638813 1.1217695 1.5026076e-38
0.24229293 0.091660805 1.123492 1.6316456e-38
0.24517944 0.090863779 1.1244482 1.5856204e-38
0.30672929 0.091772318 1.1246216 1.6227144e-38
0.31044844 0.093284778 1.121969 1.6042749e-38
0.2139311 0.096923098 1.1242838 1.0315793e-38
0.21785006 0.097391456 1.1228259 9.7658648e-39
0.22273821 0.097610876 1.1220115 9.8595024e-39
0.22778615 0.097464576 1.1221249 1.0231176e-38
0.23227546 0.097012855 1.1229475 1.290702e-38
0.23622774 0.096507356 1.1239913 1.6039152e-38
0.21956989 0.10073888 1.1249785 9.6740349e-39
0.22308914 0.10071122 1.124362 9.9499043e-39
0.22817862 0.10043722 1.1244187 9.4007074e-39
0.23086502 0.10008751 1.1246151 7.8333649e-39
0.16834095 0.12989114 1.1229253 6.4457417e-39
0.17240582 0.12895587 1.1225448 6.0791298e-39
0.17700306 0.12807241 1.1223466 5.8958274e-39
0.18234178 0.12784797 1.1222348 6.2667651e-39
0.18769823 0.12834635 1.122196 7.1905094e-39
0.19280955 0.12853648 1.1228267 8.9382509e-39
0.19770083 0.12849516 1.1233702 9.6729335e-39
0.20295943 0.12825653 1.1236417 1.0589854e-38
0.20813161 0.12830788 1.1231242 9.2087436e-39
0.21285088 0.12789133 1.1235807 8.3815164e-39
0.21789406 0.12868538 1.1229793 7.9212712e-39
0.2222238 0.12934455 1.1242974 7.5568187e-39
0.22560489 0.12976205 1.1246566 9.1187213e-39
0.26815259 0.1284512 1.1216265 7.0101413e-39
0.27205014 0.12866548 1.1213365 6.363337e-39
0.16365163 0.13408832 1.122785 5.9862209e-39
0.16726831 0.13165191 1.1218476 5.9869342e-39
0.17215496 0.13021576 1.1202854 6.1709737e-39
0.19321892 0.13025644 1.1200924 1.3988116e-38
0.19754162 0.13025355 1.1203426 1.3807673e-38
0.20163858 0.13033409 1.1205049 1.2520184e-38
0.20841813 0.13048099 1.1205029 1.2057055e-38
0.21331674 0.13065726 1.1202359 1.0587352e-38
0.2176674 0.13063186 1.1207327 7.1898228e-39
0.22261734 0.13129127 1.1213442 7.3702596e-39
0.226917 0.13293676 1.1225287 7.9227201e-39
0.23035513 0.13433845 1.1213487 9.1187213e-39
0.27199778 0.1306285 1.1213266 6.633419e-39
0.27796134 0.13164848 1.1227736 6.3571923e-39
0.28257561 0.13278875 1.1229262 7.6446773e-39
0.28730646 0.13383038 1.1229162 7.829779e-39
0.29167616 0.13466528 1.1235088 7.372035e-39
0.16177732 0.13758738 1.1221604 6.0780578e-39
0.23104787 0.13599576 1.1208042 7.4577833e-39
0.2888293 0.13546316 1.120842 5.8061639e-39
0.29270309 0.13639486 1.1215163 7.278766e-39
0.2972452 0.13751902 1.1225013 7.5553403e-39
0.30220786 0.13849391 1.1240896 5.8997846e-39
0.15969229 0.14228688 1.1230667 6.0777061e-39
0.16070154 0.14183773 1.121614 5.8940267e-39
0.29874271 0.14100946 1.1204693 6.6373413e-39
0.30267325 0.14235586 1.1220719 6.2678441e-39
0.30701649 0.14300883 1.1238645 6.0827396e-39
0.15941195 0.14705469 1.1229546 5.893675e-39
0.16076896 0.14692965 1.1212921 5.9854936e-39
0.30276358 0.14769895 1.1208725 5.8987056e-39
0.30708647 0.14775173 1.1231862 6.2660448e-39
0.31047511 0.14811707 1.1245689 5.5338706e-39
0.16133726 0.15280513 1.1218088 5.9854922e-39
0.30274889 0.15252753 1.1210833 6.7241461e-39
0.30728251 0.15233977 1.1234325 6.999291e-39
0.3107475 0.15284055 1.1249452 5.6206852e-39
0.16199096 0.15735388 1.1220847 6.0776837e-39
0.2993148 0.1583246 1.1205919 6.0802326e-39
0.30244038 0.15774798 1.1219801 6.630161e-39
0.30664068 0.15715428 1.1241692 7.7332562e-39
0.16294052 0.16224475 1.1223475 5.8943728e-39
0.29420361 0.16455239 1.1201359 5.7132494e-39
0.2973313 0.1625731 1.120858 5.8040059e-39
0.30222195 0.16249761 1.1233891 6.537608e-39
0.30566698 0.16054505 1.1244223 7.6417808e-39
0.16392156 0.16733782 1.1224005 5.8021786e-39
0.29323253 0.16756827 1.1208247 5.6199762e-39
0.29794666 0.16754915 1.1231753 5.7114515e-39
0.30114284 0.16657969 1.1243978 5.5259841e-39
0.16451259 0.17235602 1.1232755 5.8018199e-39
0.1652351 0.17294997 1.1202681 5.8018199e-39
0.28764331 0.17340437 1.1209605 5.3455389e-39
0.29227924 0.17275195 1.1228784 5.3462549e-39
0.29624581 0.17158829 1.1242141 5.5277735e-39
0.16469759 0.17684229 1.1243951 7.6378067e-39
0.16520761 0.17620689 1.1225077 5.9840559e-39
0.27926648 0.17987259 1.1201717 4.7066322e-39
0.28282192 0.17772561 1.1208832 6.0773488e-39
0.28725377 0.1774175 1.1229138 5.6213999e-39
0.29105055 0.17717688 1.1245492 5.1640133e-39
0.16560341 0.18278974 1.1228098 9.2922736e-39
0.27464122 0.18386647 1.1202171 8.6501664e-39
0.27771342 0.18257029 1.1210256 8.1913476e-39
0.28237143 0.18243025 1.1232247 7.088607e-39
0.28670269 0.18093769 1.1244957 5.5288413e-39
0.16616336 0.18740015 1.1228464 1.0855984e-38
0.26900285 0.18937021 1.1202165 7.3637506e-39
0.27224052 0.18809065 1.1211708 7.5470628e-39
0.27722403 0.18733035 1.1232363 7.5463454e-39
0.28056753 0.18676952 1.1246285 8.4682904e-39
0.16688958 0.19229135 1.1227137 1.1132925e-38
0.26453358 0.19427125 1.1205763 6.5365164e-39
0.26780432 0.19266783 1.1213291 6.7194714e-39
0.27249774 0.19246167 1.1235558 7.0871693e-39
0.27668318 0.19050454 1.1246641 7.6396172e-39
0.16769876 0.19794539 1.1227297 1.1502421e-38
0.25895393 0.19924609 1.120646 9.2912268e-39
0.26257262 0.19769573 1.1214954 6.3517749e-39
0.26784053 0.19743037 1.1239479 6.2599366e-39
0.27113408 0.19600442 1.1247673 5.5227344e-39
0.16869755 0.20280959 1.1222707 1.1595334e-38
0.25340462 0.20380783 1.1209521 9.4781264e-39
0.25790828 0.20235771 1.1221014 9.6632323e-39
0.26217732 0.20153481 1.1235882 9.294454e-39
0.26587868 0.20063095 1.124833 6.1666787e-39
0.16927423 0.2081688 1.123065 1.150314e-38
0.1705123 0.20832221 1.1202835 1.187228e-38
0.2475245 0.20805904 1.12128 1.1778314e-38
0.25228375 0.20716794 1.1227981 1.2512638e-38
0.25711465 0.20624986 1.1243616 1.334023e-38
0.17123026 0.21285437 1.121146 1.1871921e-38
0.23810852 0.21370351 1.1212833 1.2791373e-38
0.24260828 0.21204437 1.1221761 1.1226583e-38
0.24730864 0.21117742 1.1235806 1.186979e-38
0.25102529 0.21034217 1.1245708 1.0766337e-38
0.17315695 0.21766074 1.1215113 1.2055952e-38
0.17509235 0.21971723 1.1235193 1.2792431e-38
0.22882701 0.21782519 1.120304 1.5088689e-38
0.23358706 0.21684194 1.1219478 1.426182e-38
0.23837778 0.2165678 1.1237843 1.4996849e-38
0.17383133 0.22246328 1.1204023 1.2148864e-38
0.17655285 0.22185004 1.1206524 1.2332179e-38
0.22176796 0.22331502 1.1206884 1.3890521e-38
0.22555642 0.22131751 1.1212615 1.3337368e-38
0.23178616 0.22103769 1.1225631 1.4536236e-38
0.26868713 0.068753503 1.1256094 1.6778875e-38
0.27255547 0.068540469 1.1261592 1.6685961e-38
0.27764344 0.068909004 1.1263449 1.6778154e-38
0.28217742 0.068991065 1.1255366 1.6961458e-38
0.26294294 0.073223092 1.1258405 1.6687405e-38
0.26730877 0.072917104 1.1274624 1.668632e-38
0.27226529 0.072621241 1.1283395 1.6593763e-38
0.27777326 0.072670206 1.1283222 1.6778516e-38
0.28274876 0.072944693 1.1275307 1.6685959e-38
0.28693604 0.073048078 1.1261014 1.6684518e-38
0.2584067 0.077622846 1.1257552 1.6687771e-38
0.26234099 0.077766538 1.1282619 1.6595209e-38
0.26670167 0.076230556 1.1292502 1.6595208e-38
0.27114463 0.075216636 1.1297137 1.6687764e-38
0.27739489 0.075055115 1.1297328 1.6779951e-38
0.2830973 0.076832525 1.1296331 1.6871069e-38
0.28794384 0.077523977 1.1283623 1.6593764e-38
0.29253948 0.077813558 1.1261923 1.640937e-38
0.25376019 0.083544895 1.126268 1.6596297e-38
0.25746927 0.082095675 1.1279178 1.6504097e-38
0.26132533 0.080829754 1.1292896 1.6597376e-38
0.28980523 0.080625966 1.1293793 1.5854399e-38
0.29288608 0.081879288 1.1287518 1.622462e-38
0.29683712 0.082853019 1.1268494 1.6132423e-38
0.30005613 0.08429458 1.1253157 1.6227144e-38
0.2036688 0.08666721 1.1269394 1.113944e-38
0.2050446 0.088455841 1.1254835 1.2892921e-38
0.24897692 0.088180169 1.1258273 1.6230036e-38
0.25217792 0.087336935 1.1273758 1.6319347e-38
0.25599426 0.086426608 1.1297135 1.6597017e-38
0.29859471 0.087088123 1.1286452 1.6040589e-38
0.30180493 0.087708168 1.126369 1.6040951e-38
0.20713019 0.092483893 1.1271801 1.1508936e-38
0.24308942 0.093695536 1.1256659 1.6132067e-38
0.24783055 0.092341945 1.1275871 1.6225706e-38
0.25080189 0.091890149 1.1294919 1.6043117e-38
0.3028622 0.091526687 1.128173 1.5950919e-38
0.30547214 0.092928618 1.1266289 1.6044552e-38
0.2092135 0.095556818 1.1267877 1.0680628e-38
0.21184385 0.097975008 1.1267399 9.3967235e-39
0.21678717 0.099537537 1.1254818 8.8464322e-39
0.23414099 0.099575803 1.1256137 1.0876921e-38
0.23790546 0.098183393 1.1262213 1.5857634e-38
0.24233228 0.097961664 1.1281357 1.6317892e-38
0.24619123 0.096454933 1.1293092 1.6133507e-38
0.20977062 0.1008816 1.1290563 9.2126952e-39
0.2134468 0.10186142 1.1282933 9.4899968e-39
0.21792559 0.10271171 1.1270616 9.3985256e-39
0.22310255 0.10300555 1.1263618 9.4932478e-39
0.22830966 0.10307567 1.1265091 9.9542329e-39
0.2322728 0.10219964 1.1267538 1.3182528e-38
0.23733884 0.10275608 1.128732 1.438215e-38
0.24117947 0.10124409 1.1296034 1.604167e-38
0.30666104 0.10079398 1.1297588 1.6046714e-38
0.21443437 0.10558911 1.1291897 1.1050121e-38
0.2180893 0.10688476 1.1291101 9.1237422e-39
0.22277199 0.10731728 1.1287203 9.0319109e-39
0.22694004 0.10744531 1.128775 1.0229023e-38
0.23146424 0.10687404 1.1291313 1.3459837e-38
0.23564711 0.10586667 1.1298126 1.4750928e-38
0.22340339 0.11125601 1.1297437 9.3996102e-39
0.22629027 0.11042063 1.1298921 1.3184348e-38
0.21648537 0.11974144 1.1299818 9.4010522e-39
0.17641981 0.12498593 1.1293578 5.9873097e-39
0.1815526 0.12496416 1.1299616 7.1905122e-39
0.1874302 0.12478393 1.1297843 7.0965201e-39
0.1920207 0.12455164 1.1298653 7.4692459e-39
0.19528545 0.12496924 1.1292504 7.4660117e-39
0.20267038 0.12438448 1.1288848 8.5669671e-39
0.20766857 0.12394129 1.1282504 8.6591725e-39
0.21306591 0.12314102 1.128226 8.8417757e-39
0.21786319 0.12293643 1.1284105 9.4889472e-39
0.22170383 0.12317348 1.1290982 8.6624319e-39
0.22541988 0.12476704 1.1296675 1.1607992e-38
0.1642292 0.12984082 1.1289653 6.3550076e-39
0.16775925 0.12875248 1.1269826 5.8951029e-39
0.17246328 0.12717283 1.1269084 5.7114375e-39
0.17750669 0.12622994 1.1272017 6.0820151e-39
0.18253219 0.12612967 1.1271334 6.5455072e-39
0.18750398 0.1261687 1.1272898 7.1933779e-39
0.19279948 0.12609653 1.1274737 7.5621562e-39
0.19800042 0.12575671 1.1276641 8.480151e-39
0.20268446 0.12572926 1.1270478 8.5680461e-39
0.20713057 0.12596428 1.1262798 9.5764359e-39
0.21263073 0.12580869 1.126366 8.6599054e-39
0.2176706 0.12660119 1.1259066 8.3829682e-39
0.22234088 0.12665457 1.1273572 9.2152498e-39
0.2268935 0.12828831 1.1289746 7.5600557e-39
0.27452689 0.1299402 1.1253062 7.1034103e-39
0.15945208 0.13469344 1.1285825 6.6294225e-39
0.16175188 0.13278949 1.1274873 6.7226986e-39
0.16578585 0.13019258 1.1271729 5.8054128e-39
0.22758031 0.13202928 1.126964 8.1150329e-39
0.27313086 0.13069136 1.1250064 7.4556183e-39
0.27746674 0.13139093 1.1275307 9.2995071e-39
0.28290012 0.13187259 1.1272821 7.7357953e-39
0.28731829 0.13244325 1.1274818 8.3800773e-39
0.29212517 0.13319139 1.1266985 8.7484913e-39
0.29668754 0.13374576 1.1270088 8.4733421e-39
0.30299303 0.1337534 1.1294138 6.1742387e-39
0.30736083 0.13431606 1.129671 6.9089241e-39
0.31133547 0.13486864 1.1299771 7.0011113e-39
0.15858281 0.13766578 1.1274916 6.8138208e-39
0.16057184 0.13698608 1.1260906 8.2867732e-39
0.23171501 0.13599901 1.1281151 8.1121546e-39
0.29933047 0.13512944 1.1262704 7.9212516e-39
0.30304298 0.13630454 1.1267574 6.4504445e-39
0.30791554 0.13716859 1.1277076 6.1763757e-39
0.31249803 0.13748799 1.1286438 6.5444408e-39
0.31690371 0.13813618 1.1290061 6.5451498e-39
0.32174501 0.13891999 1.1294442 6.267491e-39
0.32631269 0.13969682 1.1299552 5.9959235e-39
0.15754174 0.14220677 1.1273764 6.9056591e-39
0.23389739 0.14226595 1.1284156 7.0933126e-39
0.30914354 0.14214437 1.1254787 5.534588e-39
0.31260189 0.14225222 1.1263813 6.2689231e-39
0.31731239 0.1422375 1.1277537 6.5437107e-39
0.32227376 0.14254692 1.1288151 6.0830983e-39
0.32657376 0.14300461 1.1294099 5.9898377e-39
0.15790971 0.14788419 1.1274781 6.5375926e-39
0.31307054 0.14719437 1.1258675 6.7263013e-39
0.31745452 0.1471494 1.1272801 6.5419114e-39
0.32233453 0.14725161 1.1287093 6.4486396e-39
0.32635099 0.14684644 1.1295941 5.8057939e-39
0.15902323 0.15196317 1.1274719 6.3528342e-39
0.1601482 0.15305221 1.1259346 6.0776823e-39
0.30992097 0.15314001 1.1252038 8.4690177e-39
0.31226689 0.15265214 1.1259555 7.7346897e-39
0.31712785 0.15247627 1.1278101 7.5503012e-39
0.32174331 0.15225558 1.1292542 6.9992896e-39
0.15978259 0.15666416 1.1287161 6.5365024e-39
0.16087615 0.15790518 1.1265129 6.1695192e-39
0.30885118 0.15796658 1.1253896 7.8232994e-39
0.31241828 0.15724191 1.1270384 8.9281896e-39
0.3173224 0.1575968 1.1291515 8.4679359e-39
0.32028416 0.15537322 1.1294867 6.6269226e-39
0.16163909 0.16233346 1.127164 6.0776865e-39
0.30812016 0.163357 1.1267864 8.1005925e-39
0.31243896 0.16198492 1.1284202 8.6516055e-39
0.31556904 0.1611591 1.1295627 8.7427207e-39
0.16250062 0.16749242 1.1276815 5.7096256e-39
0.30323327 0.16790073 1.1259677 6.1695486e-39
0.30691296 0.16785392 1.1278278 6.5368836e-39
0.31161687 0.16636847 1.1294993 9.0207412e-39
0.16315672 0.1720323 1.1278008 6.0762473e-39
0.2984598 0.17309597 1.1259736 5.62176e-39
0.30178681 0.17251524 1.1273384 5.8047093e-39
0.30640724 0.17220998 1.1294111 6.2649616e-39
0.16364028 0.17690215 1.1279812 7.5459684e-39
0.2898834 0.17914207 1.1251106 4.9789073e-39
0.29357299 0.17761669 1.126009 5.3491192e-39
0.29751694 0.17763184 1.127776 5.2544124e-39
0.30126926 0.1763197 1.1288788 5.5313538e-39
0.1640739 0.18199651 1.1282228 9.56778e-39
0.28490654 0.18470851 1.1256191 5.5374593e-39
0.28781942 0.18266067 1.1259044 5.4398757e-39
0.29237691 0.18246643 1.1278567 5.2569193e-39
0.29665062 0.18098818 1.1290469 5.2579969e-39
0.16463371 0.18711153 1.1282724 1.0855984e-38
0.16547439 0.18997511 1.1258991 1.1040016e-38
0.27925622 0.18941218 1.125327 4.8770231e-39
0.28303689 0.18728936 1.1260558 6.9967715e-39
0.28726339 0.1875312 1.128107 5.4362841e-39
0.29136717 0.18669759 1.1295176 5.3516191e-39
0.16495559 0.19155133 1.1293981 1.131911e-38
0.1653374 0.19256404 1.1282793 1.1225837e-38
0.27407944 0.19380541 1.1250336 7.7310996e-39
0.27768746 0.19328564 1.1265398 6.9024207e-39
0.28234288 0.19212678 1.1281508 5.8907981e-39
0.28630066 0.19119105 1.1295031 5.4420197e-39
0.16617624 0.19730957 1.1277432 1.1502421e-38
0.27306426 0.19806837 1.1268411 7.1782915e-39
0.27738923 0.19701429 1.1283605 7.9133328e-39
0.28093737 0.19637798 1.1296785 7.2737157e-39
0.16698752 0.20287029 1.1278974 1.1687168e-38
0.26256642 0.20460235 1.1257064 1.1775093e-38
0.26783183 0.20250341 1.1268772 1.0029499e-38
0.27213645 0.20224838 1.1287601 9.4774075e-39
0.27605373 0.20068173 1.1297064 1.1132953e-38
0.16799144 0.20768562 1.1272423 1.1871917e-38
0.25845489 0.20818602 1.1263036 1.4259305e-38
0.26308203 0.20746505 1.127859 1.2420445e-38
0.268271 0.20656598 1.129576 1.2237135e-38
0.16886447 0.21285768 1.127666 1.1964113e-38
0.17087629 0.21468568 1.1250207 1.2056312e-38
0.24868388 0.21354954 1.12626 1.416854e-38
0.25283146 0.21244554 1.127148 1.4812825e-38
0.25659165 0.21159594 1.128008 1.389232e-38
0.26085514 0.21060267 1.1290574 1.1775093e-38
0.1710231 0.21831384 1.1257875 1.2148505e-38
0.24201569 0.21707755 1.1265583 1.4996493e-38
0.24696159 0.21689582 1.1285583 1.4904297e-38
0.2378394 0.22056466 1.1251405 1.5365264e-38
0.26323351 0.079322092 1.1301037 1.6136027e-38
0.26799878 0.078657448 1.1311635 1.6593766e-38
0.27259198 0.077566743 1.1313213 1.650193e-38
0.2774699 0.077549472 1.1312799 1.6593406e-38
0.28204405 0.078912944 1.1313919 1.6500134e-38
0.2864455 0.079534754 1.1302836 1.6685599e-38
0.25919867 0.084301591 1.1308079 1.6410819e-38
0.26313978 0.08249373 1.1316674 1.6503014e-38
0.26745534 0.082112208 1.1331704 1.6410456e-38
0.27282023 0.08186096 1.1340622 1.6501567e-38
0.2778165 0.08176934 1.1339256 1.6409017e-38
0.28297669 0.08254686 1.1334366 1.6501572e-38
0.28753898 0.082645737 1.1319482 1.631682e-38
0.29112512 0.083427869 1.1308503 1.6132425e-38
0.20315067 0.087033823 1.1303234 1.3350306e-38
0.25414163 0.089675717 1.1304755 1.5858364e-38
0.25776982 0.087694027 1.13175 1.6319708e-38
0.26186407 0.086862832 1.1337135 1.6228233e-38
0.2657156 0.08550337 1.1346803 1.6410465e-38
0.28846776 0.086096913 1.1339945 1.6039872e-38
0.29279619 0.087348677 1.1327664 1.6040949e-38
0.29599872 0.088307962 1.1314963 1.6134228e-38
0.2066675 0.094070219 1.1310201 1.3350306e-38
0.2531811 0.092789821 1.1318104 1.6227871e-38
0.2570017 0.091535844 1.1336139 1.622715e-38
0.2942166 0.09137626 1.1348147 1.6041308e-38
0.29768237 0.091340959 1.1323836 1.5948754e-38
0.3006095 0.093346916 1.1315111 1.5674693e-38
0.2046676 0.098998509 1.130106 1.1050121e-38
0.20758006 0.098551631 1.1323274 1.0317232e-38
0.24809097 0.098356158 1.1315885 1.6226425e-38
0.25174528 0.096989445 1.1332972 1.6227867e-38
0.25520933 0.096580185 1.1349616 1.6499768e-38
0.29822826 0.095572762 1.1347861 1.5674695e-38
0.30225077 0.097321443 1.1327071 1.5490664e-38
0.20493087 0.10049146 1.1323279 8.2075256e-39
0.20844088 0.10357171 1.1302359 9.2141316e-39
0.21175754 0.10274305 1.131284 9.491073e-39
0.2393959 0.103771 1.1301429 1.5855836e-38
0.24286447 0.10286712 1.1311415 1.5581416e-38
0.24734409 0.10250204 1.1332619 1.6320064e-38
0.25081593 0.10120372 1.134786 1.6503369e-38
0.3032738 0.10097881 1.134171 1.5490666e-38
0.30569521 0.10381536 1.1339931 1.5676863e-38
0.20863882 0.10716245 1.1332295 8.4833936e-39
0.21292943 0.10773183 1.1319175 9.1230205e-39
0.21720387 0.10852771 1.1304526 9.4900094e-39
0.22100498 0.10904647 1.1301296 1.0136456e-38
0.23186186 0.10869971 1.1302333 1.0046081e-38
0.23729503 0.10770597 1.1310351 1.5119718e-38
0.24206649 0.10757258 1.1327611 1.6688841e-38
0.2462815 0.10643666 1.1343554 1.6688122e-38
0.20881145 0.11333328 1.1337091 8.8439267e-39
0.21255991 0.11291103 1.1324315 9.673316e-39
0.21751279 0.11284445 1.1310064 9.4910898e-39
0.22225955 0.11249634 1.1306639 1.0044625e-38
0.22783592 0.11230745 1.1309675 1.1705953e-38
0.23263645 0.11228151 1.1316928 1.3735704e-38
0.23778896 0.1126528 1.1329981 1.6780679e-38
0.24180982 0.1121544 1.1342902 1.7335297e-38
0.19935966 0.11999254 1.1348702 7.4591986e-39
0.2028102 0.11914212 1.1344043 8.0152507e-39
0.20751897 0.11770363 1.1332564 8.9343175e-39
0.21249145 0.11804773 1.1312952 9.3945796e-39
0.21764955 0.11783291 1.1306474 9.5822148e-39
0.22250237 0.11730237 1.1309876 1.031978e-38
0.22713742 0.11691869 1.131757 1.1523005e-38
0.23222421 0.11752404 1.132928 1.4199926e-38
0.2370315 0.11745197 1.1342056 1.6596651e-38
0.17350794 0.12440838 1.1324596 5.9905355e-39
0.17766066 0.12414798 1.1321476 6.0813004e-39
0.18220724 0.1238183 1.132338 6.544068e-39
0.18760039 0.12344763 1.1327243 7.5589248e-39
0.19284834 0.12285786 1.1330134 7.5603611e-39
0.19773956 0.12254301 1.132393 7.9262724e-39
0.20238139 0.12171931 1.1319404 8.4754931e-39
0.20779312 0.12128972 1.1306791 9.8533941e-39
0.21026111 0.12111257 1.1302327 1.0680979e-38
0.21672407 0.12002701 1.1300818 8.5637511e-39
0.22329009 0.12138578 1.1304221 9.8627716e-39
0.22771546 0.12225607 1.131694 1.10642e-38
0.2325048 0.12242655 1.1337951 1.2265263e-38
0.23565584 0.12114573 1.1346576 1.844128e-38
0.15704769 0.12860592 1.1343396 1.2429422e-38
0.16261436 0.12852919 1.1323711 7.3666218e-39
0.16728318 0.12656337 1.1317699 5.8951057e-39
0.17162159 0.12543792 1.1313117 5.7107228e-39
0.17640693 0.1252574 1.1305252 7.5679183e-39
0.22794533 0.12709644 1.130917 9.8692666e-39
0.23178859 0.12736398 1.1334312 1.2264184e-38
0.15730965 0.13311608 1.1326792 9.2072792e-39
0.16093493 0.13102111 1.131025 8.7480989e-39
0.22877273 0.13185345 1.1303825 1.6876832e-38
0.23194487 0.1317482 1.1321256 8.1117861e-39
0.27269828 0.13282007 1.1306169 8.8356605e-39
0.28279406 0.13161203 1.1323214 8.7470606e-39
0.28832558 0.13143715 1.1318668 8.2878873e-39
0.29284754 0.13156994 1.1320781 9.117271e-39
0.29767868 0.13254122 1.1316962 1.0220373e-38
0.30295572 0.13270266 1.1323047 7.5550054e-39
0.30780408 0.13300145 1.1323805 7.0043595e-39
0.31241933 0.13283174 1.1327857 7.5575235e-39
0.3171421 0.13285638 1.1328636 7.2794933e-39
0.32222426 0.13273336 1.1330539 6.6359189e-39
0.32767519 0.13308921 1.1330235 6.0827564e-39
0.33262685 0.13264973 1.1339951 5.9916383e-39
0.33687952 0.13338622 1.1344105 6.268214e-39
0.15436277 0.13810009 1.1343418 9.851564e-39
0.15650794 0.13731377 1.131519 9.0225334e-39
0.23321155 0.13666053 1.1328521 8.4809246e-39
0.30646956 0.1350119 1.1302713 7.3724302e-39
0.31255722 0.13557059 1.1304117 6.5455184e-39
0.31796715 0.13589545 1.130554 6.5455156e-39
0.32323334 0.13677955 1.1306496 6.5430016e-39
0.3271659 0.13755161 1.1307259 6.0813158e-39
0.33252886 0.13721009 1.1318876 5.6221412e-39
0.33762243 0.1371794 1.1333344 5.5292253e-39
0.34157023 0.13793182 1.1343955 5.4377513e-39
0.15455061 0.14194885 1.1329389 8.1942245e-39
0.15595067 0.14315018 1.1315639 8.469724e-39
0.32834309 0.14258552 1.1301773 5.9898307e-39
0.3325378 0.14218219 1.1311527 5.5288651e-39
0.33721545 0.14185239 1.1326838 5.4363108e-39
0.34184477 0.14223531 1.1342785 5.4381044e-39
0.15464652 0.14679378 1.1333561 8.1938644e-39
0.15648137 0.14818579 1.1328046 7.0878783e-39
0.23535277 0.14626144 1.1334479 8.100615e-39
0.32844934 0.14744987 1.1305578 5.9898195e-39
0.33271405 0.14721353 1.1317087 5.5288567e-39
0.33748075 0.14712949 1.1333702 5.345906e-39
0.34104979 0.14693107 1.1345718 5.345906e-39
0.15739135 0.15259032 1.1323887 6.9045647e-39
0.32406259 0.15373236 1.1306026 7.6403417e-39
0.32733521 0.15231559 1.1311731 6.6308729e-39
0.33208188 0.15251772 1.1329532 5.9912544e-39
0.33672476 0.15172301 1.1343726 5.6224831e-39
0.15881754 0.15747878 1.1323744 6.6287009e-39
0.31938708 0.15954709 1.1306615 8.0080368e-39
0.32299897 0.15744157 1.1312032 7.7314611e-39
0.32784593 0.15747313 1.1331295 6.7216308e-39
0.33146387 0.15711419 1.1342666 6.2642497e-39
0.15958044 0.16223963 1.133442 6.1677297e-39
0.1604588 0.16324329 1.1313173 5.9858482e-39
0.31803942 0.16310087 1.1312103 7.8225721e-39
0.32285443 0.16231714 1.1329271 7.9147691e-39
0.32626739 0.16192272 1.1341321 6.9042242e-39
0.15983003 0.16690396 1.1348445 1.067124e-38
0.16074239 0.16727851 1.1328574 6.0762501e-39
0.31323966 0.16774774 1.130794 7.0882483e-39
0.31808981 0.16697544 1.1326824 7.5477859e-39
0.32173547 0.16662258 1.1341563 6.7205546e-39
0.16141929 0.1721634 1.1328802 7.0867951e-39
0.30828515 0.17311391 1.130748 5.8029115e-39
0.31254143 0.17267083 1.1325301 6.1731205e-39
0.3165952 0.17097263 1.1336638 6.1702506e-39
0.16192113 0.17724945 1.1329613 8.4650394e-39
0.30327326 0.17839371 1.1307991 5.3462465e-39
0.30753034 0.17739379 1.1322919 5.7128682e-39
0.31145811 0.17732033 1.1340945 5.6235411e-39
0.16238748 0.18207106 1.1330774 9.7521671e-39
0.29831213 0.18294454 1.1307361 5.2558445e-39
0.30220431 0.18287027 1.1324257 5.3462423e-39
0.30679345 0.18214148 1.1341708 5.5277609e-39
0.16291247 0.18716747 1.1332706 1.0304615e-38
0.28978294 0.18950456 1.1302037 5.2565676e-39
0.29269588 0.18791313 1.1306938 5.4384351e-39
0.29760206 0.18743545 1.1325943 5.5306308e-39
0.3020657 0.18690786 1.1342881 5.252253e-39
0.16364738 0.19213387 1.133148 1.1041091e-38
0.28484952 0.1945771 1.1305521 5.980484e-39
0.28818661 0.1927896 1.131145 5.9872943e-39
0.29220504 0.19249 1.1327198 6.6308561e-39
0.29660815 0.19148092 1.1341414 5.6188761e-39
0.16442727 0.19733933 1.1332229 1.1410586e-38
0.16502038 0.19737795 1.1313684 1.1594615e-38
0.27899522 0.19899042 1.1301979 1.4351849e-38
0.28254637 0.19754015 1.1310723 7.4534337e-39
0.28717458 0.19762911 1.1331835 9.2022499e-39
0.2913208 0.19653909 1.1343942 1.067305e-38
0.16453642 0.20158908 1.1344867 1.196483e-38
0.16548932 0.20255631 1.1325923 1.1594974e-38
0.27398548 0.20369433 1.1304619 1.1041841e-38
0.27780578 0.20258518 1.1316127 9.7532699e-39
0.28271306 0.20229176 1.1337259 1.1775795e-38
0.28576919 0.20091771 1.1343033 1.2973238e-38
0.16630392 0.20798524 1.1326759 1.1779723e-38
0.26857942 0.20839171 1.1308839 1.1317703e-38
0.27271578 0.20741475 1.1321208 1.2420444e-38
0.27693474 0.2067491 1.1336409 1.1041477e-38
0.28059685 0.20583358 1.1347787 1.3065082e-38
0.16706389 0.21250625 1.1323283 1.1872276e-38
0.25940761 0.21311496 1.1303289 1.5180894e-38
0.26211023 0.21223687 1.1307549 1.4719557e-38
0.26767942 0.21269195 1.1333226 1.4075993e-38
0.27209386 0.21060081 1.1337955 1.3524262e-38
0.1670875 0.21762213 1.1333351 1.21485e-38
0.25340378 0.21768604 1.1313512 1.5179801e-38
0.25713578 0.21556288 1.1312852 1.5271638e-38
0.26127356 0.21741211 1.1341205 1.5455309e-38
0.26529971 0.21555761 1.1340557 1.5456382e-38
0.26921177 0.084722281 1.1354771 1.6504809e-38
0.27237833 0.084615678 1.1358615 1.5949482e-38
0.27760953 0.084629729 1.135906 1.6224627e-38
0.2638483 0.088197596 1.1357342 1.6411175e-38
0.26757136 0.087216973 1.1364602 1.6226425e-38
0.27240363 0.08710289 1.1373869 1.6317539e-38
0.27730682 0.087316938 1.1376164 1.6317539e-38
0.28248742 0.087730072 1.1371616 1.6224983e-38
0.28720787 0.08843217 1.1361771 1.6040591e-38
0.25870419 0.09326195 1.1357222 1.6320429e-38
0.26263031 0.092910081 1.1378031 1.6504091e-38
0.26722303 0.091233946 1.138878 1.6410093e-38
0.27142447 0.090629272 1.1394957 1.6594842e-38
0.27731192 0.090312257 1.1395088 1.6317542e-38
0.28217116 0.091187768 1.1394248 1.6133145e-38
0.2873899 0.092776328 1.1389692 1.6040589e-38
0.29228139 0.092361547 1.136469 1.5856918e-38
0.29539317 0.09469822 1.1361647 1.5580697e-38
0.25383958 0.098809123 1.1357706 1.6136037e-38
0.25750586 0.097713403 1.1375656 1.641262e-38
0.2612389 0.095819965 1.138752 1.6596287e-38
0.28889084 0.095212206 1.1399924 1.5395228e-38
0.29225364 0.096770212 1.1391914 1.5672889e-38
0.29664224 0.097867511 1.1372993 1.5673246e-38
0.30017525 0.098179154 1.1351954 1.4938577e-38
0.20761901 0.10136242 1.1353068 8.481244e-39
0.21062416 0.1047973 1.1354909 7.6504394e-39
0.24911186 0.104646 1.1352541 1.6318257e-38
0.25271139 0.10266048 1.1367851 1.641262e-38
0.25644118 0.1021698 1.1390523 1.6780682e-38
0.29806381 0.10125607 1.1385204 1.5488494e-38
0.30152696 0.10316707 1.1379155 1.4936048e-38
0.20770106 0.10853246 1.1378013 7.6504324e-39
0.24812236 0.10809244 1.1359317 1.7057266e-38
0.2523233 0.10735654 1.1384493 1.6965073e-38
0.25506699 0.10536406 1.1395122 1.7147677e-38
0.30419862 0.10579707 1.1369542 1.4844584e-38
0.30576864 0.10748779 1.1378903 1.4938577e-38
0.2031669 0.11328442 1.1385766 8.2921949e-39
0.20711425 0.11266431 1.1361322 8.9339615e-39
0.24398518 0.11299431 1.1355401 1.7610439e-38
0.24792559 0.11280254 1.1376053 1.7702637e-38
0.25103676 0.11104219 1.1386915 1.7701558e-38
0.18834139 0.11958924 1.1392858 8.1106595e-39
0.1930521 0.11902829 1.1387285 8.0155898e-39
0.19759524 0.11835705 1.1376092 7.5571396e-39
0.20213462 0.11671267 1.1370318 7.6479031e-39
0.2058267 0.11562192 1.1359811 7.4646076e-39
0.23821023 0.11913664 1.135241 1.8439838e-38
0.24246538 0.11778646 1.1366599 1.7702997e-38
0.24618922 0.11685707 1.1382757 1.7794475e-38
0.15484534 0.12317613 1.1390089 1.3535763e-38
0.15583605 0.122933 1.137917 1.3258825e-38
0.16491756 0.12470501 1.1357962 1.1507101e-38
0.16810589 0.12342298 1.1366695 5.804345e-39
0.17319058 0.12234634 1.1368556 6.079504e-39
0.17753215 0.1218783 1.1369804 6.9088961e-39
0.1825989 0.12150864 1.137086 7.9230326e-39
0.18751949 0.12095317 1.1373081 8.2928857e-39
0.19286367 0.12063777 1.1365216 7.9262696e-39
0.23779339 0.12294409 1.1363797 1.4109174e-38
0.24222392 0.12266023 1.1385851 1.7059787e-38
0.24590711 0.12061767 1.1397147 1.1349081e-38
0.1544084 0.12799752 1.1386299 1.3073704e-38
0.15708792 0.12689272 1.1379576 9.2987532e-39
0.1628888 0.1257886 1.1355947 7.9190655e-39
0.23753428 0.12748669 1.1375986 1.1526982e-38
0.24085857 0.12697622 1.1395557 1.604708e-38
0.29789838 0.1298084 1.1384283 6.2790405e-39
0.30240244 0.12899929 1.1384448 9.1223325e-39
0.30714059 0.1284413 1.1387737 1.0230116e-38
0.311959 0.12851076 1.1382322 9.4025179e-39
0.31689227 0.12829766 1.1380471 8.8486183e-39
0.32206833 0.12806433 1.1378138 8.5727446e-39
0.32703558 0.12776387 1.137621 6.9150226e-39
0.33199516 0.12758353 1.1377943 6.8224612e-39
0.33725661 0.12797335 1.138033 7.283068e-39
0.34211376 0.12874886 1.1385498 6.5444338e-39
0.34667438 0.12919904 1.139529 6.081669e-39
0.15320735 0.1329328 1.1383569 1.2061e-38
0.15555857 0.13128053 1.1362739 7.9172761e-39
0.23425655 0.13198054 1.1354897 1.1153156e-38
0.2372077 0.13215955 1.1381874 1.0326278e-38
0.27818725 0.13265899 1.13509 8.8356605e-39
0.28386554 0.13204628 1.1392627 8.8356605e-39
0.28686613 0.13156146 1.1370633 1.1325282e-38
0.29249153 0.13208692 1.1360443 1.2886828e-38
0.29808652 0.13194957 1.137482 1.3073393e-38
0.30285823 0.13116054 1.1361517 1.2063208e-38
0.30722222 0.1308801 1.1358403 1.0318351e-38
0.31250319 0.13094169 1.1357329 9.5818715e-39
0.31769401 0.13065478 1.1355135 8.2050439e-39
0.32196891 0.13069303 1.1357293 7.929543e-39
0.32732844 0.1305121 1.1356685 6.9239979e-39
0.33230543 0.13028806 1.1354049 6.3611355e-39
0.3376734 0.13147341 1.1357312 6.1760254e-39
0.34208128 0.13226479 1.1364478 6.2674938e-39
0.34739983 0.13260491 1.1380436 5.8983553e-39
0.35174304 0.13309428 1.1392208 5.8072359e-39
0.35573086 0.13434561 1.1399177 5.3441193e-39
0.15256125 0.13695252 1.1376617 1.0219265e-38
0.23666783 0.13748226 1.1379809 7.4635286e-39
0.34410587 0.13653536 1.1357037 5.4373884e-39
0.34757191 0.13757509 1.1366702 5.5295798e-39
0.3528513 0.13767147 1.1384917 5.6235635e-39
0.35595185 0.13882096 1.1394268 5.715036e-39
0.15195794 0.14218402 1.1376022 1.0035235e-38
0.23595574 0.14198595 1.1362513 7.3659268e-39
0.34360671 0.14262888 1.1351355 5.3462633e-39
0.34758735 0.1421988 1.1365125 5.4373842e-39
0.35245863 0.14254634 1.1382837 5.4380988e-39
0.35616311 0.14254889 1.1395671 5.6221285e-39
0.15284096 0.14703886 1.1379828 9.2058429e-39
0.15536408 0.14977735 1.1362075 6.5354262e-39
0.23942854 0.14942661 1.137466 8.8349262e-39
0.289168 0.14954963 1.1397638 6.635968e-39
0.34304947 0.1477955 1.135792 5.4384576e-39
0.34727365 0.14771023 1.1372957 5.252637e-39
0.35195071 0.14771785 1.1390622 5.252637e-39
0.15584579 0.1528776 1.1372268 7.5470586e-39
0.33837044 0.15338726 1.1356623 5.5306462e-39
0.34250152 0.15264437 1.1371373 5.5306476e-39
0.34766105 0.15206394 1.1389923 5.3441137e-39
0.35064226 0.15076141 1.1397352 5.2544432e-39
0.15693383 0.15775231 1.1374197 7.3641065e-39
0.33353481 0.15799825 1.13553 6.1738464e-39
0.33774447 0.1577059 1.1372679 5.8979854e-39
0.34238866 0.15751404 1.1391443 5.5306476e-39
0.34510154 0.15602195 1.1398137 5.3415914e-39
0.15805823 0.16239467 1.1373432 6.6283463e-39
0.3285459 0.16281632 1.1355504 6.9060206e-39
0.33221564 0.16263767 1.1370834 6.1724157e-39
0.33683807 0.16213438 1.1389371 5.8061499e-39
0.34058401 0.16044445 1.1397239 5.622839e-39
0.15899821 0.16759883 1.1375154 6.0758956e-39
0.32320249 0.1689904 1.1358573 6.5379556e-39
0.32765898 0.16725644 1.1371186 6.0780676e-39
0.3316412 0.16745161 1.1390916 5.9858804e-39
0.15930648 0.17236549 1.138244 7.2701088e-39
0.16057874 0.17297758 1.1356715 5.3419291e-39
0.31867689 0.17337906 1.1356615 6.0780606e-39
0.32231367 0.17235585 1.1369183 5.6203251e-39
0.32695851 0.17179264 1.1388576 5.802208e-39
0.15966621 0.17742567 1.1385889 9.7518112e-39
0.16022941 0.17728451 1.137256 8.0051445e-39
0.3139253 0.17823038 1.1356697 5.531351e-39
0.31772247 0.17785376 1.137269 5.4373645e-39
0.32208842 0.17698731 1.1389173 5.4380834e-39
0.15995225 0.18202992 1.1394491 1.067124e-38
0.16051815 0.18220161 1.1377568 1.0212063e-38
0.30853468 0.18404993 1.1358727 5.6239026e-39
0.31256071 0.18248069 1.1370248 5.7139444e-39
0.31749183 0.18211734 1.1391823 5.4384379e-39
0.16108161 0.18704084 1.1378608 1.1040375e-38
0.3036691 0.18842056 1.1356994 6.9067269e-39
0.30738553 0.18770131 1.1371093 5.8965378e-39
0.31215832 0.18740702 1.1392192 5.9883719e-39
0.31602833 0.18515132 1.1399456 5.430543e-39
0.16189475 0.19241829 1.1379114 1.122548e-38
0.29778063 0.19352847 1.1356425 8.3778759e-39
0.30265871 0.19288111 1.1374754 7.4555833e-39
0.30680633 0.19158185 1.1387281 7.8225693e-39
0.16275951 0.19745173 1.1378675 1.1410586e-38
0.28949428 0.19932385 1.1350296 1.4904657e-38
0.29289106 0.197615 1.1356345 1.0674839e-38
0.29780337 0.19758554 1.1377506 1.0857793e-38
0.30191761 0.19608939 1.1387537 1.1408447e-38
0.16355084 0.20246974 1.1379063 1.1687528e-38
0.28486836 0.20447345 1.135916 1.5178722e-38
0.28805858 0.20234263 1.1361163 1.3064e-38
0.29228044 0.202337 1.1379424 1.2236403e-38
0.295892 0.20089789 1.1387192 1.297216e-38
0.16418247 0.2072268 1.1380709 1.1872276e-38
0.1653502 0.20768505 1.1360786 1.1687887e-38
0.27829421 0.2090925 1.1356304 1.4352215e-38
0.28269026 0.20752208 1.1366913 1.416782e-38
0.28700137 0.20704274 1.1383181 1.4260011e-38
0.29119098 0.20565104 1.1393509 1.3065072e-38
0.1644222 0.21329647 1.1394416 1.2332889e-38
0.16519099 0.21312115 1.1374384 1.1964111e-38
0.2728619 0.21358071 1.1359839 1.4995776e-38
0.27797756 0.21235716 1.1374316 1.5363471e-38
0.28288889 0.21106325 1.1388354 1.5270915e-38
0.26831675 0.21764541 1.1365776 1.5180157e-38
0.27278861 0.21533006 1.1369822 1.4995407e-38
0.2773881 0.21600385 1.1393706 1.4903571e-38
0.26835388 0.094022825 1.1406792 1.6317902e-38
0.27255705 0.09393318 1.1415747 1.6594841e-38
0.27755922 0.093427017 1.1414889 1.6502648e-38
0.2825577 0.093401805 1.1407725 1.6226058e-38
0.28662688 0.094193906 1.1402491 1.6134225e-38
0.26254845 0.098452874 1.1409451 1.6963989e-38
