# .PCD v0.7 - Point Cloud Data file format
VERSION 0.7
FIELDS x y z rgb
SIZE 4 4 4 4
TYPE F F F F
COUNT 1 1 1 1
WIDTH 360
HEIGHT 1
VIEWPOINT 0 0 0 1 0 0 0
POINTS 360
DATA ascii
0.066037893 0.15828104 1.1270001 1.28875e-38
0.063794769 0.16383278 1.1270001 1.2058463e-38
0.067159459 0.16272245 1.1270001 1.2150302e-38
0.071645707 0.16494314 1.1270001 1.1323073e-38
0.067159459 0.16827418 1.1270001 1.1875155e-38
0.071645707 0.16716383 1.1270001 1.1691854e-38
0.059676893 0.14697447 1.1340001 1.3354238e-38
0.063438661 0.14660206 1.1340001 1.3722296e-38
0.067576595 0.14697447 1.1340001 1.4277965e-38
0.072042286 0.14687653 1.13325 1.4831487e-38
0.075476304 0.14809172 1.1340001 1.5108071e-38
0.04387749 0.15367794 1.1340001 1.1232307e-38
0.046134546 0.15479518 1.1340001 1.1415626e-38
0.05290572 0.15367794 1.1340001 1.2707784e-38
0.058291085 0.1529257 1.1334 1.298508e-38
0.06325423 0.1529257 1.1334 1.3445697e-38
0.067487717 0.15235692 1.1325001 1.3905948e-38
0.072090715 0.1525607 1.1340001 1.4459471e-38
0.076040566 0.15200207 1.1340001 1.4828969e-38
0.039363373 0.15814692 1.1340001 9.756853e-39
0.043125134 0.15851933 1.1340001 1.0124195e-38
0.047263078 0.15814692 1.1340001 1.0216751e-38
0.051777191 0.15814692 1.1340001 9.7597159e-39
0.057367217 0.15800747 1.133 1.0588738e-38
0.062936611 0.1578324 1.1317501 1.2339002e-38
0.067773007 0.15735711 1.131 1.3443177e-38
0.072090715 0.15814692 1.1340001 1.4087104e-38
0.075476304 0.15814692 1.1340001 1.4364404e-38
0.039363373 0.1626159 1.1340001 1.1781519e-38
0.042748962 0.1626159 1.1340001 1.1780803e-38
0.047263078 0.1626159 1.1340001 1.1136888e-38
0.051777191 0.1626159 1.1340001 1.0677349e-38
0.057341896 0.16240031 1.1325002 1.0770971e-38
0.062520474 0.16181427 1.131 1.1782961e-38
0.071948424 0.16229399 1.1317501 1.2150304e-38
0.075476304 0.16149865 1.1340001 1.3071884e-38
0.038234845 0.16708487 1.1340001 1.2335408e-38
0.046886902 0.16671246 1.1340001 1.1968427e-38
0.051777191 0.16596763 1.1340001 1.242724e-38
0.057341896 0.16686437 1.1325002 1.1782954e-38
0.062520474 0.16701429 1.131 1.187515e-38
0.050648663 0.17043662 1.1340001 1.1600363e-38
0.059676893 0.17043662 1.1340001 1.1783314e-38
0.063062482 0.17043662 1.1340001 1.1874794e-38
0.032707162 0.14412932 1.138 1.3076557e-38
0.04289975 0.14300814 1.138 1.2435158e-38
0.046297278 0.14412932 1.138 1.1697964e-38
0.053092334 0.14412932 1.138 1.2340821e-38
0.056489863 0.14412932 1.138 1.2250423e-38
0.067814961 0.14412932 1.138 1.4460572e-38
0.027422115 0.14786661 1.138 1.3441025e-38
0.032707162 0.14749289 1.138 1.2982561e-38
0.038369708 0.14749289 1.138 1.252626e-38
0.04289975 0.14749289 1.138 1.2526264e-38
0.047429785 0.14749289 1.138 1.2433356e-38
0.051959828 0.14749289 1.138 1.2800346e-38
0.056489863 0.14749289 1.138 1.2985459e-38
0.062152412 0.14861406 1.138 1.3537907e-38
0.033160165 0.15220186 1.138 1.2149939e-38
0.038369708 0.15197763 1.138 1.1787264e-38
0.042522248 0.15160391 1.138 1.215676e-38
0.047429785 0.15197763 1.138 1.2339715e-38
0.051582329 0.15160391 1.138 1.2617382e-38
0.056867369 0.15160391 1.138 1.2893608e-38
0.062152412 0.15085644 1.138 1.3445705e-38
0.078007549 0.15309881 1.138 1.5013355e-38
0.081405081 0.15197763 1.138 1.5382496e-38
0.016852025 0.15982592 1.138 1.2883546e-38
0.025912102 0.15870473 1.138 1.0954998e-38
0.033839673 0.15758356 1.138 1.0216019e-38
0.037803452 0.15702295 1.138 9.482057e-39
0.04176724 0.15646237 1.138 9.8508381e-39
0.048562296 0.15534118 1.138 1.1967358e-38
0.050827317 0.15534118 1.138 1.2429765e-38
0.055357356 0.15534118 1.138 1.2982925e-38
0.078007549 0.15758356 1.138 1.4549151e-38
0.08027257 0.15758355 1.138 1.4917212e-38
0.033160161 0.16296525 1.138 1.2239979e-38
0.037237201 0.16318947 1.138 1.1596413e-38
0.075742535 0.16431066 1.138 1.141132e-38
0.033839673 0.16655304 1.138 1.3254839e-38
0.038369708 0.16767421 1.138 1.2243215e-38
0.042522248 0.16730049 1.138 1.2428322e-38
0.051959828 0.16879541 1.138 1.1875867e-38
0.075742535 0.16655304 1.138 1.1320931e-38
0.04289975 0.17103778 1.138 1.1233031e-38
0.047429785 0.17103778 1.138 1.1324502e-38
0.05233733 0.17253271 1.138 1.1690764e-38
0.057056118 0.17215897 1.138 1.1874432e-38
0.037368089 0.14351082 1.1420002 1.2894683e-38
0.047975332 0.14313579 1.1420001 1.2248974e-38
0.051005974 0.14463595 1.1420001 1.3076578e-38
0.062370878 0.14463595 1.1420001 1.3630468e-38
0.014638279 0.14913645 1.1420001 1.2892886e-38
0.013880618 0.1521368 1.1420001 1.104936e-38
0.01804775 0.15251184 1.1420001 1.187731e-38
0.022593712 0.15251184 1.1420001 1.2243572e-38
0.027139673 0.15251184 1.1420001 1.2519076e-38
0.030549144 0.15138671 1.1420001 1.2978971e-38
0.014638279 0.15701234 1.1420001 1.0770257e-38
0.01842658 0.15738739 1.1420001 1.1413461e-38
0.022972543 0.15663731 1.1420001 1.0860654e-38
0.027518503 0.15663731 1.1420001 1.0584788e-38
0.030549144 0.15701234 1.1420001 1.0582638e-38
0.082070038 0.15663731 1.1420001 1.5103041e-38
0.085100681 0.15813747 1.1420001 1.5010856e-38
0.014638279 0.16038772 1.1420001 1.2609115e-38
0.019184241 0.16151285 1.1420001 1.3619667e-38
0.022593711 0.16038772 1.1420001 1.2058819e-38
0.028276164 0.16038772 1.1420001 1.0955e-38
0.030549144 0.16038772 1.1420001 1.0768822e-38
0.078281738 0.16376311 1.1420001 1.2243576e-38
0.081312381 0.16113782 1.1420001 1.4269697e-38
0.085100681 0.16038772 1.1420001 1.4639204e-38
0.044187032 0.16938874 1.1420001 1.1968071e-38
0.057824917 0.17388923 1.1420001 1.196591e-38
0.061234385 0.19864203 1.1420001 1.2060288e-38
0.066916838 0.1975169 1.1420001 1.4086396e-38
0.071462795 0.1975169 1.1420001 1.4458058e-38
0.06464386 0.20201741 1.1420001 9.4820864e-39
0.066916838 0.20201741 1.1420001 9.9401807e-39
0.071462795 0.20314254 1.1420001 1.0674125e-38
0.01240861 0.15417507 1.146 1.0677359e-38
0.01240861 0.15756229 1.146 1.0952135e-38
0.016970495 0.15643321 1.146 1.0770258e-38
0.021532379 0.15869135 1.146 1.1320549e-38
0.01354908 0.16207856 1.146 1.3804054e-38
0.016970495 0.16320762 1.146 1.4355786e-38
0.021532379 0.16320762 1.146 1.3345597e-38
0.08311782 0.16320762 1.146 1.325735e-38
0.085398756 0.16320762 1.146 1.3071888e-38
0.017730808 0.16621847 1.1460001 1.5649038e-38
0.048903685 0.16998203 1.146 1.1784037e-38
0.080836877 0.16546576 1.146 1.1137608e-38
0.037498973 0.19482152 1.146 9.2058331e-39
0.053465568 0.19933778 1.146 1.1320548e-38
0.057267141 0.19858508 1.1460001 1.242654e-38
0.06315957 0.19764419 1.146 1.4271514e-38
0.069432162 0.19820872 1.146 1.4366573e-38
0.073994048 0.19820872 1.146 1.4549184e-38
0.076274991 0.19820872 1.146 1.4915813e-38
0.048903685 0.20159592 1.146 1.1136543e-38
0.053465568 0.20272499 1.146 1.086175e-38
0.056886978 0.20272498 1.146 9.8501333e-39
0.061448868 0.20272498 1.146 9.3898936e-39
0.069432162 0.20272499 1.146 1.0216748e-38
0.073233739 0.20234863 1.1460001 1.003308e-38
0.076274991 0.20272499 1.146 1.0218563e-38
0.062807798 0.14338313 1.1500001 1.400031e-38
0.065096699 0.14338313 1.1500001 1.4275821e-38
-0.010464343 0.15284489 1.153 1.4364046e-38
-0.0070220307 0.15284489 1.153 1.6019598e-38
0.0067472174 0.15284489 1.153 1.4542332e-38
0.010163017 0.15358022 1.1500001 1.0955008e-38
-0.021938715 0.15966067 1.153 1.3166282e-38
-0.017348967 0.15966067 1.1530001 1.3164838e-38
-0.010464343 0.15738875 1.153 1.4271493e-38
-0.0072442102 0.15767696 1.1518 1.500905e-38
-0.002429117 0.158317 1.1515 1.6108203e-38
0.0033049053 0.15966067 1.153 1.444834e-38
0.0067472174 0.15738875 1.153 1.2516923e-38
0.010163017 0.15811226 1.1500001 1.1132572e-38
-0.021938715 0.16306856 1.153 1.307301e-38
-0.017348967 0.16306856 1.153 1.298116e-38
-0.01161178 0.1619326 1.153 1.6024275e-38
-0.0074045099 0.16344723 1.1530001 1.676472e-38
-0.0035797185 0.16420452 1.153 1.6947675e-38
0.0071296967 0.16268991 1.1530001 1.5465017e-38
0.010934822 0.16316436 1.151 1.4544134e-38
-0.021938715 0.16874838 1.153 1.261275e-38
-0.017348967 0.16761242 1.153 1.26131e-38
-0.011229302 0.16799109 1.1530001 1.289003e-38
-0.0070220307 0.16761243 1.153 1.4183277e-38
-0.0028147604 0.16799109 1.1530001 1.5009786e-38
0.0010100306 0.16874838 1.153 1.5011942e-38
0.0078946548 0.16647646 1.153 1.7778164e-38
0.012460759 0.16732168 1.151 1.7407211e-38
0.019318633 0.16830933 1.1500001 1.5832709e-38
-0.016775249 0.1715883 1.153 1.169224e-38
-0.01161178 0.17215627 1.153 1.0679527e-38
-0.0070220307 0.17215627 1.153 1.1140851e-38
-0.0024322812 0.17215627 1.153 1.196879e-38
0.0025399472 0.17177764 1.1530001 1.3076927e-38
0.00559978 0.17215627 1.153 1.3448593e-38
0.012943379 0.17238347 1.153 1.6394866e-38
0.018174181 0.17170838 1.1500001 1.759233e-38
0.021663902 0.17329223 1.153 1.7222477e-38
-0.010464343 0.17556417 1.153 1.0311123e-38
-0.0070220307 0.17670015 1.153 9.7583062e-39
-0.0024322814 0.17670015 1.153 9.2065659e-39
0.0025399472 0.17707881 1.1530001 9.114013e-39
0.0071296967 0.17707881 1.1530001 9.8519157e-39
0.012484403 0.17670015 1.153 1.2982587e-38
0.017839111 0.17707881 1.1530001 1.5105932e-38
0.022408081 0.17692456 1.152 1.7041675e-38
0.057234459 0.17783611 1.153 1.205811e-38
0.062044829 0.17661807 1.1500001 1.1874442e-38
-0.0058745933 0.18010803 1.153 9.2080149e-39
-0.0024322812 0.18124399 1.153 9.2072946e-39
0.0023869553 0.18192557 1.153 9.1143815e-39
0.0067472174 0.18237995 1.153 8.7466738e-39
0.011336966 0.18237996 1.153 8.6548467e-39
0.017992103 0.18192557 1.153 1.0774598e-38
0.022811342 0.18237995 1.153 1.3078739e-38
0.02740109 0.18237995 1.153 1.6026443e-38
0.030843401 0.18237996 1.153 1.7408655e-38
0.062971644 0.18010803 1.153 1.2059909e-38
0.010189529 0.18805978 1.153 8.7473899e-39
0.017074153 0.18805978 1.153 8.1931595e-39
0.02281134 0.18805978 1.153 7.9172817e-39
0.02740109 0.18805978 1.153 1.0497997e-38
0.031608358 0.18843845 1.1530001 1.2895072e-38
0.035433147 0.18919574 1.153 1.473789e-38
0.068708837 0.18805978 1.153 1.6480573e-38
0.072853535 0.18827632 1.1520001 1.6753571e-38
0.077505857 0.18843845 1.1530001 1.5184117e-38
0.02281134 0.19260363 1.153 7.3648296e-39
0.02736395 0.19235307 1.1515 8.0069536e-39
0.031970777 0.19247761 1.1522499 8.8392071e-39
0.037228588 0.1926292 1.1518 1.1696532e-38
0.042317774 0.19298229 1.1530001 1.445877e-38
0.04805496 0.19373959 1.153 1.5936051e-38
0.052644707 0.19373959 1.153 1.6675414e-38
0.057234459 0.19373959 1.153 1.7593416e-38
0.062206686 0.19298229 1.1530001 1.833168e-38
0.067561403 0.19260363 1.153 1.8332036e-38
0.07325165 0.19247907 1.1522499 1.8515358e-38
0.07788834 0.19260362 1.153 1.7956795e-38
0.02281134 0.19601153 1.153 9.2951757e-39
0.02736395 0.19689102 1.1515 9.7539818e-39
0.031907603 0.19663456 1.1500001 8.5593973e-39
0.037629858 0.19720104 1.1500001 8.0080312e-39
0.04338114 0.19676206 1.15075 1.0311445e-38
0.047960438 0.19676206 1.15075 1.1880562e-38
0.05254123 0.19676206 1.15075 1.3444992e-38
0.056704056 0.19625688 1.1500001 1.5103076e-38
0.061663345 0.19550154 1.1500001 1.6946955e-38
0.067385606 0.19550154 1.1500001 1.7132782e-38
0.073107868 0.19550154 1.1500001 1.7593783e-38
0.078135714 0.19642687 1.151 1.7591255e-38
0.082095601 0.19752616 1.1530001 1.6852245e-38
0.078830138 0.20229959 1.1500001 1.1417067e-38
0.0033163708 0.15337513 1.1570001 1.5835572e-38
-0.0012893014 0.15565495 1.1570001 1.6018526e-38
0.0021649527 0.15679485 1.1570001 1.4820717e-38
-0.024317663 0.16363429 1.1570001 1.3165207e-38
-0.010500645 0.16477419 1.1570001 1.5845653e-38
-0.0058949734 0.16249438 1.1570001 1.7223522e-38
0.0021649527 0.16135448 1.1570001 1.6108922e-38
0.0056192069 0.16477419 1.1570001 1.7129917e-38
-0.023166245 0.167054 1.1570001 1.2980455e-38
-0.012803482 0.167054 1.1570001 1.3354594e-38
0.0033163708 0.16819391 1.1570001 1.6485636e-38
0.0063868193 0.16857386 1.1570001 1.7224639e-38
-0.022014827 0.17161362 1.1570001 1.2245409e-38
-0.018560573 0.17389342 1.1570001 1.1508571e-38
0.0010135346 0.17389342 1.1570001 1.1509966e-38
0.0079220431 0.17275351 1.1570001 1.4369478e-38
0.010224879 0.17161362 1.1570001 1.6212646e-38
-0.015106318 0.17731315 1.1570001 1.0404393e-38
-0.012035869 0.17769311 1.1570001 1.0035615e-38
0.0010135346 0.17617324 1.1570001 9.575689e-39
0.0056192069 0.17617324 1.1570001 9.4874492e-39
0.019436222 0.17617324 1.1570001 1.6950199e-38
-0.011652064 0.18073286 1.1570001 9.2094512e-39
-0.0074301972 0.18225273 1.1570001 9.2080121e-39
0.013295326 0.18149281 1.1570001 9.1140298e-39
0.032101821 0.18301266 1.1570001 1.8146213e-38
0.058584437 0.18073286 1.1570001 1.2151382e-38
0.060887273 0.18073286 1.1570001 1.2151383e-38
0.065492943 0.18301266 1.1570001 1.2336499e-38
-0.0012893014 0.18529248 1.1570001 9.3913229e-39
0.0021649527 0.18643239 1.1570001 9.299486e-39
0.0067706248 0.18871219 1.1570001 9.2072848e-39
0.013679132 0.18757229 1.1570001 8.6541264e-39
0.019436222 0.18757229 1.1570001 7.8268937e-39
0.033253241 0.18643239 1.1570001 1.6398112e-38
0.036323689 0.18757229 1.1570001 1.7042394e-38
0.040161747 0.1898521 1.1570001 1.7130994e-38
0.066644356 0.1875723 1.1570001 1.5285285e-38
0.070098616 0.18529248 1.1570001 1.3437441e-38
0.081612796 0.1898521 1.1570001 1.4817511e-38
0.011952006 0.19270188 1.1570001 9.2984042e-39
0.018284805 0.19327182 1.1570001 8.3775354e-39
0.042464584 0.19213191 1.1570001 1.6122223e-38
0.049373094 0.19213191 1.1570001 1.7964693e-38
0.081612796 0.19327182 1.1570001 1.7033388e-38
0.014830551 0.19669153 1.1570001 1.0492273e-38
0.017901 0.19745147 1.1570001 1.0952162e-38
0.083915628 0.19669153 1.1570001 1.6946951e-38
0.086218461 0.19783144 1.1570001 1.6208308e-38
0.090824135 0.19897135 1.1570001 1.6206873e-38
-0.010536949 0.15848076 1.161 1.3533582e-38
-0.0059153535 0.15619308 1.161 1.5836291e-38
-0.0036045562 0.15619308 1.161 1.6110721e-38
-0.0024491576 0.16305615 1.161 1.7311763e-38
0.0010170386 0.16305615 1.161 1.7307813e-38
-0.02786793 0.16991924 1.161 1.2981172e-38
-0.024401734 0.16991924 1.161 1.2796782e-38
-0.012847747 0.16534385 1.161 1.4922258e-38
-0.0012937589 0.16763154 1.161 1.6204728e-38
0.0021724373 0.16648769 1.161 1.676221e-38
-0.026712531 0.17335077 1.161 1.2429796e-38
-0.023631468 0.17373204 1.161 1.2061381e-38
-0.018239608 0.17754488 1.161 1.0772454e-38
0.048388384 0.17792615 1.161 1.1231958e-38
-0.015158544 0.1813577 1.161 9.8537374e-39
-0.011692348 0.18364538 1.161 9.3009252e-39
0.033368204 0.1813577 1.161 1.8690749e-38
0.035679001 0.18364538 1.161 1.7868555e-38
0.048388384 0.1813577 1.161 1.2613078e-38
0.058786973 0.18364538 1.161 1.2521954e-38
0.06225317 0.18364538 1.161 1.233828e-38
-0.0036045562 0.18593308 1.161 9.4835172e-39
0.0010170386 0.18822077 1.161 9.5753499e-39
0.037989799 0.18707693 1.161 1.8422791e-38
0.040300597 0.18822077 1.161 1.8422438e-38
0.065719366 0.18707693 1.161 1.3717609e-38
0.0079494314 0.19279616 1.161 9.8512109e-39
0.044151925 0.19127104 1.161 1.7778864e-38
0.048003253 0.19127104 1.161 1.8423856e-38
0.052624848 0.19203359 1.161 1.8148006e-38
0.05801671 0.19203359 1.161 1.7965406e-38
0.061868038 0.19127104 1.161 1.7501552e-38
0.084205747 0.19279616 1.161 1.5741251e-38
0.084205747 0.19508384 1.161 1.6940849e-38
-0.016426355 0.15842107 1.169 1.3166634e-38
-0.012936275 0.15842107 1.169 1.3074423e-38
-0.012892011 0.16132236 1.1650001 1.4266842e-38
-0.027963944 0.16820908 1.1650001 1.3256681e-38
-0.0012982163 0.16591351 1.1650001 1.7039502e-38
0.0010205426 0.16591351 1.1650001 1.7223537e-38
-0.022939965 0.17815658 1.1650002 1.1232709e-38
-0.019848287 0.17968695 1.1650001 1.0772814e-38
0.045076959 0.17968695 1.1650001 1.159968e-38
0.053192616 0.17968695 1.1650001 1.1782968e-38
-0.01757467 0.18360288 1.1680001 1.0405468e-38
0.038120683 0.18313032 1.1650001 1.6113608e-38
0.041598819 0.18313031 1.1650001 1.5095154e-38
0.046816029 0.1837042 1.1650001 1.3901283e-38
0.053192612 0.18313031 1.1650001 1.2429777e-38
0.056670751 0.18313032 1.1650001 1.2245738e-38
0.068264551 0.1842781 1.1650001 1.270385e-38
-0.0059357337 0.18657367 1.1650001 9.5757128e-39
-0.002463805 0.18919349 1.1670001 9.6671882e-39
0.041985281 0.18733887 1.1650002 1.8510308e-38
0.047424167 0.18782823 1.1656667 1.6208308e-38
0.053237278 0.1878816 1.166 1.4731757e-38
0.057830133 0.18772146 1.1650001 1.3995269e-38
0.06246765 0.18772146 1.1650001 1.380944e-38
0.088276058 0.188366 1.169 1.179345e-38
0.0056580603 0.19346039 1.1650001 1.0217837e-38
0.054351993 0.19116482 1.1650001 1.8239462e-38
0.056670751 0.19116482 1.1650001 1.7959286e-38
0.084495865 0.19116482 1.1650001 1.4361224e-38
0.089439414 0.19182119 1.169 1.3079842e-38
0.091766134 0.19297291 1.169 1.4736803e-38
-0.019984584 0.18554352 1.1730001 1.0957198e-38
-0.0083111757 0.18785487 1.1730001 9.7597425e-39
-0.022471486 0.18448186 1.1810001 1.1049395e-38
