# .PCD v0.7 - Point Cloud Data file format
VERSION 0.7
FIELDS x y z rgb
SIZE 4 4 4 4
TYPE F F F F
COUNT 1 1 1 1
WIDTH 1057
HEIGHT 1
VIEWPOINT 0 0 0 1 0 0 0
POINTS 1057
DATA ascii
0.13806221 0.077638648 1.24 5.3433991e-39
0.14176425 0.077638648 1.24 5.253367e-39
0.10844577 0.083747044 1.24 5.1604049e-39
0.13436015 0.082525365 1.24 5.4355821e-39
0.13806221 0.082525365 1.24 5.252637e-39
0.14176425 0.082525365 1.24 5.2533614e-39
0.10803443 0.087004863 1.24 5.1607664e-39
0.13436015 0.088633761 1.24 5.2493888e-39
0.13806221 0.087412089 1.24 5.0667968e-39
0.14176425 0.086190403 1.24 4.8834943e-39
0.10721175 0.091077119 1.24 4.7934315e-39
0.13312614 0.092298791 1.24 4.8823999e-39
0.13765088 0.091891572 1.24 4.6980128e-39
0.10721175 0.098407187 1.24 5.2501006e-39
0.12942407 0.097185507 1.24 5.6199467e-39
0.13189211 0.097185507 1.24 4.7008785e-39
0.10967979 0.1032939 1.24 5.1589896e-39
0.12942407 0.10207222 1.24 6.1713184e-39
0.11214782 0.10695894 1.24 4.9749571e-39
0.12942407 0.10573726 1.24 5.4351981e-39
0.13189211 0.10818062 1.24 4.8831132e-39
0.11214782 0.11062398 1.24 4.9753186e-39
0.12942407 0.11306734 1.24 5.1597001e-39
0.11461586 0.11551069 1.24 4.6983744e-39
0.11831791 0.11795405 1.24 4.7905644e-39
0.12201996 0.11673237 1.24 5.0675016e-39
0.12942407 0.11673237 1.24 5.0689422e-39
0.12746795 0.059552632 1.245 1.1234875e-38
0.097217463 0.063845783 1.2490001 6.3535643e-39
0.10136071 0.063845783 1.2490001 6.537957e-39
0.10716125 0.063845783 1.2490001 5.893326e-39
0.11171882 0.063435599 1.2490001 5.3423201e-39
0.1165963 0.063383833 1.248 4.7934651e-39
0.12198889 0.062668949 1.2459999 5.621781e-39
0.12994593 0.06200584 1.245 7.4703473e-39
0.097112797 0.067875944 1.2476667 6.076983e-39
0.10177504 0.068357781 1.2490001 6.2603023e-39
0.10640506 0.068138868 1.245 5.7096565e-39
0.11136103 0.068138868 1.245 5.0675311e-39
0.11507802 0.066912256 1.245 4.7927476e-39
0.13490191 0.066912256 1.245 9.0401646e-39
0.13861889 0.069365472 1.245 7.380646e-39
0.14776509 0.069588326 1.2490001 4.8871041e-39
0.10177504 0.073279969 1.2490001 5.6178125e-39
0.106576 0.073164597 1.247 5.2501174e-39
0.11136103 0.073045284 1.245 4.8838545e-39
0.13861889 0.074271888 1.245 4.8831468e-39
0.1465221 0.072049424 1.2490001 5.2558782e-39
0.098046109 0.076971605 1.2490001 5.1611336e-39
0.10177504 0.078202151 1.2490001 5.0689366e-39
0.10610469 0.077625006 1.2463334 5.0671485e-39
0.11012204 0.077951699 1.245 4.9753158e-39
0.14481387 0.079178311 1.245 5.4381142e-39
0.1465221 0.076971605 1.2490001 5.3462801e-39
0.098046109 0.081893787 1.2490001 5.1614853e-39
0.10177504 0.083124332 1.2490001 5.2529607e-39
0.10610469 0.082536682 1.2463334 5.0682107e-39
0.11012204 0.081631519 1.245 5.0682177e-39
0.14481387 0.082858123 1.245 5.3455585e-39
0.14752847 0.082993194 1.247 5.5288679e-39
0.10218936 0.087636344 1.2490001 5.3430109e-39
0.10533501 0.087907501 1.247 5.158977e-39
0.14398788 0.088173412 1.2450001 5.4334227e-39
0.14776509 0.088046521 1.2490001 5.3412369e-39
0.15025103 0.088046521 1.2490001 5.3401607e-39
0.10621732 0.093278319 1.2476667 4.8831118e-39
0.13985789 0.093897566 1.245 6.2599309e-39
0.14357488 0.092670962 1.245 8.5583225e-39
0.14776509 0.092968702 1.2490001 9.4763229e-39
0.15025103 0.092968702 1.2490001 8.2796028e-39
0.10301801 0.096660338 1.2490001 5.8007423e-39
0.10621732 0.097377524 1.2476667 5.2497363e-39
0.13490191 0.097577386 1.245 5.1600574e-39
0.13820589 0.09716852 1.2450001 8.0083927e-39
0.14155021 0.097890884 1.2490001 9.6653735e-39
0.14527914 0.097890884 1.2490001 9.94051e-39
0.10704597 0.10229445 1.2476667 5.4341346e-39
0.13263667 0.1026504 1.247 5.6192321e-39
0.13657832 0.10281307 1.2490001 7.3648226e-39
0.14776509 0.10404362 1.2490001 8.0051557e-39
0.15025103 0.10404362 1.2490001 7.0832232e-39
0.10666047 0.10764801 1.248 5.2504678e-39
0.11012204 0.10739022 1.245 4.9749599e-39
0.13242392 0.10616362 1.245 4.9749487e-39
0.13657832 0.10773526 1.2490001 4.4242972e-39
0.10657401 0.11247703 1.247 4.8820398e-39
0.11094804 0.11270551 1.2450001 4.8831216e-39
0.13339175 0.11200935 1.2463334 4.883116e-39
0.13533534 0.11388798 1.2490001 4.8834775e-39
0.1079899 0.11634907 1.2490001 4.880965e-39
0.11171882 0.11757962 1.2490001 5.2486685e-39
0.11507802 0.11842967 1.245 4.6043851e-39
0.1328494 0.11757962 1.2490001 4.7930783e-39
0.13533534 0.11881017 1.2490001 4.7037526e-39
0.11171883 0.12373235 1.2490001 9.5681416e-39
0.11650188 0.12230564 1.247 5.5238134e-39
0.12251198 0.12210949 1.245 5.1582637e-39
0.12880932 0.12220855 1.2460001 5.0682233e-39
0.13242392 0.12210949 1.245 4.7934399e-39
0.13782129 0.12127126 1.2490001 4.8899333e-39
0.11669073 0.127424 1.2490001 1.058085e-38
0.12166262 0.127424 1.2490001 8.0977129e-39
0.1262202 0.12701382 1.2490001 5.800022e-39
0.1129618 0.13357672 1.2490001 1.1225488e-38
0.1165963 0.13223922 1.248 1.1775778e-38
0.12166262 0.13234617 1.2490001 1.1867623e-38
0.12539154 0.13234618 1.2490001 1.1037507e-38
0.1179337 0.13726836 1.2490001 1.1591747e-38
0.12041964 0.13726836 1.2490001 1.1867615e-38
0.092614852 0.059159487 1.2540001 5.895463e-39
0.097606651 0.059159487 1.2540001 6.6290764e-39
0.10176648 0.059159487 1.2540001 6.9056661e-39
0.10717426 0.059983134 1.2540001 6.076281e-39
0.11216606 0.059983134 1.2540001 5.800064e-39
0.11715786 0.059983134 1.2540001 7.9219718e-39
0.12214966 0.059983134 1.2540001 1.0773896e-38
0.12714148 0.058747664 1.2540001 1.2154301e-38
0.1308853 0.059983134 1.2540001 1.0498401e-38
0.092198864 0.063689552 1.2540001 5.7092809e-39
0.095942713 0.062454078 1.2540001 6.2617274e-39
0.10343041 0.062454078 1.2540001 6.537601e-39
0.10592631 0.062454078 1.2540001 6.1695472e-39
0.092614852 0.068219617 1.2540001 5.4334171e-39
0.095942713 0.069866911 1.2540001 5.8011192e-39
0.1433648 0.069866911 1.2540001 7.287377e-39
0.14669268 0.068219617 1.2540001 6.4551346e-39
0.15210044 0.069866911 1.2540001 4.1488132e-39
0.1558443 0.069866911 1.2540001 4.2406472e-39
0.097190663 0.073573321 1.2540001 5.52597e-39
0.1433648 0.074808799 1.2540001 4.9767844e-39
0.14710864 0.074808799 1.2540001 5.1626106e-39
0.15168446 0.073161505 1.2540001 5.1604413e-39
0.1558443 0.072337851 1.2540001 5.4373772e-39
0.096774682 0.07892704 1.2540001 5.0692953e-39
0.1483566 0.079750687 1.2540001 5.5295896e-39
0.096774682 0.083868921 1.2540001 5.1600574e-39
0.097190663 0.088398993 1.2540001 5.5263246e-39
0.10093451 0.089634463 1.2540001 5.5263246e-39
0.095942713 0.092105404 1.2540001 5.7103473e-39
0.10218246 0.093340881 1.2540001 5.5245225e-39
0.10176648 0.098694593 1.2540001 6.3517524e-39
0.1433648 0.099518239 1.2540001 9.8490417e-39
0.1483566 0.098282769 1.2540001 1.0398973e-38
0.1508525 0.098282769 1.2540001 9.200106e-39
0.098438613 0.10198918 1.2540001 6.8120061e-39
0.10259845 0.10281283 1.2540001 6.1688073e-39
0.10592631 0.10446013 1.2540001 5.7100026e-39
0.14211684 0.10322465 1.2540001 9.7557656e-39
0.14669266 0.10281283 1.2540001 9.2962294e-39
0.15251642 0.10281283 1.2540001 6.7166043e-39
0.15667626 0.10363649 1.2540001 5.1575561e-39
0.10343041 0.10816655 1.2540001 5.5248953e-39
0.14170086 0.10857837 1.2540001 4.9767409e-39
0.14669266 0.10775472 1.2540001 6.3510462e-39
0.10343041 0.11310843 1.2540001 5.2464965e-39
0.138373 0.11310843 1.2540001 4.7934329e-39
0.1408689 0.11310843 1.2540001 4.9803268e-39
0.1458607 0.11310843 1.2540001 5.4416623e-39
0.10343041 0.11681484 1.2540001 6.8966529e-39
0.10675828 0.11846215 1.2540001 6.4410852e-39
0.13754104 0.11763849 1.2540001 4.7055434e-39
0.14170086 0.11846215 1.2540001 5.0768231e-39
0.1458607 0.11805032 1.2540001 5.5363635e-39
0.10343041 0.12175673 1.2540001 1.0855994e-38
0.10717426 0.1229922 1.2540001 1.0764881e-38
0.11216606 0.12175673 1.2540001 7.8196938e-39
0.1358771 0.1229922 1.2540001 4.7030379e-39
0.14211684 0.12175673 1.2540001 5.0757511e-39
0.1458607 0.12175673 1.2540001 5.5331377e-39
0.10842221 0.1279341 1.2540001 1.1134006e-38
0.11216606 0.1279341 1.2540001 1.1408792e-38
0.12838942 0.12916957 1.2540001 6.349949e-39
0.13213325 0.1279341 1.2540001 4.6051012e-39
0.13712505 0.1279341 1.2540001 4.6054571e-39
0.1408689 0.12916957 1.2540001 6.7166043e-39
0.11175008 0.13246417 1.2540001 1.1317321e-38
0.12838942 0.13287599 1.2540001 9.5670598e-39
0.11341401 0.1365824 1.2540001 1.0949631e-38
0.11590991 0.13781787 1.2540001 1.1224769e-38
0.12339761 0.13781787 1.2540001 1.18669e-38
0.12672549 0.13740605 1.2540001 1.1959806e-38
0.11840581 0.14275977 1.2540001 1.1963036e-38
0.12173368 0.14234796 1.2540001 1.1868693e-38
0.12090171 0.14646618 1.2540001 1.2241069e-38
0.088807702 0.057741504 1.2590001 5.6217558e-39
0.09214884 0.056087639 1.2590001 5.3451745e-39
0.097160541 0.056087639 1.2590001 5.7100124e-39
0.10258989 0.056501105 1.2590001 6.0777243e-39
0.10760159 0.057741504 1.2590001 5.802215e-39
0.11261329 0.057741504 1.2590001 6.0770082e-39
0.117625 0.057741504 1.2590001 8.9343231e-39
0.12263671 0.057741504 1.2590001 1.2981182e-38
0.12639548 0.057741504 1.2590001 1.3165566e-38
0.13266012 0.057741504 1.2590001 1.0036715e-38
0.088807702 0.0614627 1.2590001 5.5274064e-39
0.14769521 0.062703095 1.2590001 8.1124811e-39
0.15270692 0.062703095 1.2590001 9.8566283e-39
0.15771863 0.062703095 1.2590001 1.1601127e-38
0.088807702 0.066424295 1.2590001 5.2497475e-39
0.14769521 0.0651839 1.2590001 7.3778028e-39
0.15270692 0.066424295 1.2590001 6.0834626e-39
0.15771863 0.066424295 1.2590001 6.8170676e-39
0.1614774 0.06766469 1.2590001 5.0714771e-39
0.088807702 0.070145488 1.2590001 5.066794e-39
0.09214884 0.071799353 1.2590001 5.2501048e-39
0.15897155 0.07138589 1.2590001 4.7044868e-39
0.16273034 0.07138589 1.2590001 5.3505625e-39
0.093819402 0.076347485 1.2590001 5.1589868e-39
0.15312457 0.076760948 1.2590001 5.5288609e-39
0.15771863 0.076347485 1.2590001 5.7164696e-39
0.16273034 0.076347485 1.2590001 5.536023e-39
0.093819402 0.081309073 1.2590001 4.9763906e-39
0.15270692 0.081309073 1.2590001 5.7118131e-39
0.15771863 0.081309073 1.2590001 5.5302804e-39
0.16273034 0.081309073 1.2590001 5.2569207e-39
0.093819402 0.08627066 1.2590001 5.1582693e-39
0.15270692 0.085030265 1.2590001 5.4345073e-39
0.1614774 0.085030265 1.2590001 5.5277469e-39
0.097995833 0.094126523 1.2590001 5.9858468e-39
0.15395986 0.094953455 1.2590001 5.522031e-39
0.097578183 0.09867464 1.2590001 6.9963904e-39
0.15395986 0.098674648 1.2590001 6.07376e-39
0.15646569 0.099915043 1.2590001 4.791649e-39
0.097578183 0.10363623 1.2590001 6.6286981e-39
0.10133696 0.10487664 1.2590001 6.2613645e-39
0.15897155 0.10239584 1.2590001 5.1604231e-39
0.097578183 0.10983823 1.2590001 5.6156419e-39
0.10133696 0.10859783 1.2590001 5.6170853e-39
0.14393644 0.10735743 1.2590001 6.5397296e-39
0.14894815 0.10983823 1.2590001 5.5248953e-39
0.15270694 0.10859783 1.2590001 5.5234631e-39
0.15771863 0.10859783 1.2590001 5.4355807e-39
0.097578183 0.11355942 1.2590001 7.1779118e-39
0.10133696 0.11355942 1.2590001 5.7045964e-39
0.14393644 0.11355942 1.2590001 5.2572683e-39
0.14894815 0.11355942 1.2590001 5.4405917e-39
0.151454 0.11355942 1.2590001 5.6213985e-39
0.09883111 0.11976141 1.2590001 1.1682866e-38
0.10217225 0.11893448 1.2590001 9.655308e-39
0.14393644 0.11728062 1.2590001 5.3530442e-39
0.14894815 0.11728062 1.2590001 5.7175303e-39
0.09883111 0.12224221 1.2590001 1.1682508e-38
0.10258989 0.12348261 1.2590001 1.1408083e-38
0.13892473 0.12472301 1.2590001 4.703754e-39
0.14143059 0.12472301 1.2590001 4.8888571e-39
0.14143059 0.12720381 1.2590001 4.6998079e-39
0.13266012 0.1334058 1.2590001 7.0803393e-39
0.13725418 0.13299234 1.2590001 6.625831e-39
0.14143059 0.1321654 1.2590001 9.8465376e-39
0.12890133 0.13960779 1.2590001 1.223603e-38
0.13140719 0.137127 1.2590001 1.1683944e-38
0.12388963 0.14456938 1.2590001 1.1869414e-38
0.12764841 0.14332898 1.2590001 1.2051652e-38
0.11887792 0.14829057 1.2590001 1.2610575e-38
0.12305435 0.14870405 1.2590001 1.2333992e-38
0.12764841 0.14829057 1.2590001 1.2054185e-38
0.08783295 0.056680616 1.263 5.4377261e-39
0.10417274 0.055436276 1.263 4.9749879e-39
0.10794346 0.055436276 1.263 5.0722016e-39
0.11297108 0.055436276 1.263 6.1738646e-39
0.11799871 0.055436276 1.263 8.0159695e-39
0.12302633 0.055436276 1.263 1.1878083e-38
0.12931088 0.055436276 1.263 1.2703876e-38
0.14942136 0.057924956 1.263 9.9491897e-39
0.15319209 0.057924956 1.263 1.2062124e-38
0.15947662 0.056680616 1.263 1.0681707e-38
0.084062234 0.061657973 1.263 5.5248953e-39
0.086576045 0.061657973 1.263 5.4344947e-39
0.14816445 0.060413633 1.263 8.4805378e-39
0.15319209 0.060413633 1.263 1.23405e-38
0.15821972 0.060413633 1.263 1.3350312e-38
0.16199043 0.061657973 1.263 1.1235233e-38
0.084062234 0.066635333 1.263 5.2490314e-39
0.086576045 0.066635333 1.263 5.157912e-39
0.16366631 0.066220552 1.263 6.6337581e-39
0.16701806 0.066635333 1.263 5.8039947e-39
0.084062234 0.07036835 1.263 5.158991e-39
0.087413989 0.072027475 1.263 5.066794e-39
0.16701806 0.071612686 1.263 5.9941242e-39
0.084062234 0.07534571 1.263 5.0664394e-39
0.086576045 0.07534571 1.263 5.0667968e-39
0.091603674 0.076590046 1.263 5.066794e-39
0.16701806 0.076590046 1.263 5.4420365e-39
0.091603674 0.081567407 1.263 4.8834817e-39
0.16701806 0.081567407 1.263 5.0711016e-39
0.091603674 0.086544752 1.263 5.0660751e-39
0.154449 0.087789096 1.263 5.1568428e-39
0.15821972 0.086544752 1.263 5.5256029e-39
0.16366631 0.086959541 1.263 5.7150094e-39
0.16701806 0.086544752 1.263 5.5306308e-39
0.094117485 0.092766456 1.263 5.6185118e-39
0.094117485 0.096499473 1.263 6.4453816e-39
0.094117485 0.10147683 1.263 6.7201734e-39
0.16199043 0.10272117 1.263 5.2529691e-39
0.097469233 0.10686897 1.263 5.8014667e-39
0.16199043 0.10520984 1.263 5.2518999e-39
0.154449 0.11267588 1.263 5.8029227e-39
0.15696281 0.11267588 1.263 5.8951211e-39
0.16199043 0.1101872 1.263 5.5288567e-39
0.099145107 0.11765324 1.263 1.0579047e-38
0.15361106 0.11682367 1.263 5.805431e-39
0.15696281 0.11516456 1.263 5.9876727e-39
0.096631296 0.12138625 1.263 1.1865818e-38
0.15193518 0.12138625 1.263 5.6199607e-39
0.097888201 0.12511927 1.263 1.1407e-38
0.10291583 0.12636361 1.263 1.1315891e-38
0.14439374 0.12636361 1.263 5.2540467e-39
0.14690755 0.12511927 1.263 5.3465996e-39
0.14439374 0.13009663 1.263 7.4548798e-39
0.13433848 0.13756266 1.263 1.1589243e-38
0.13936612 0.13507397 1.263 1.0123113e-38
0.14187993 0.13507397 1.263 1.1779737e-38
0.11674181 0.14254002 1.263 1.187049e-38
0.13266262 0.14088091 1.263 1.2604457e-38
0.11674181 0.14627303 1.263 1.2425451e-38
0.13182467 0.1450287 1.263 1.2420426e-38
0.13182467 0.15000606 1.263 1.2514073e-38
0.091966309 0.05315721 1.268 4.9781997e-39
0.10206137 0.05315721 1.268 5.343769e-39
0.16263174 0.05315721 1.268 6.2685728e-39
0.16641739 0.05315721 1.268 5.9073334e-39
0.079347484 0.05815427 1.268 6.5350857e-39
0.083133131 0.056905005 1.268 5.9858692e-39
0.086918779 0.05565574 1.268 5.5299217e-39
0.12729903 0.05565574 1.268 1.2979024e-38
0.14496538 0.05815427 1.268 5.168014e-39
0.14748915 0.05815427 1.268 6.5494855e-39
0.15253668 0.05565574 1.268 8.2000034e-39
0.15674296 0.056488585 1.268 9.7622775e-39
0.16263174 0.056905005 1.268 1.0130697e-38
0.16641739 0.056905009 1.268 8.3894198e-39
0.079347484 0.061902065 1.268 6.1673836e-39
0.081871249 0.061902065 1.268 5.7078488e-39
0.16641739 0.061902065 1.268 8.1992552e-39
0.17104429 0.061485644 1.268 6.3571488e-39
0.079347484 0.066899121 1.268 5.8014793e-39
0.081871249 0.066899121 1.268 5.3408669e-39
0.17020303 0.066899121 1.268 5.7107242e-39
0.082712501 0.072312616 1.268 4.97532e-39
0.17020303 0.071896188 1.268 5.9004993e-39
0.089442544 0.076893255 1.268 5.0667954e-39
0.17146492 0.076893255 1.268 5.438452e-39
0.17651245 0.076893255 1.268 5.1604357e-39
0.089442544 0.080641046 1.268 4.9753186e-39
0.17146492 0.081890315 1.268 5.2490314e-39
0.089442544 0.085638106 1.268 5.0671527e-39
0.17020303 0.086887375 1.268 4.9771109e-39
0.092807561 0.091468006 1.268 5.4341261e-39
0.15632233 0.091884434 1.268 4.8820524e-39
0.16136986 0.091884434 1.268 5.2583571e-39
0.16599676 0.091468021 1.268 5.7189709e-39
0.091966309 0.095632225 1.268 5.8943714e-39
0.15758421 0.096881494 1.268 4.2413549e-39
0.16136986 0.096881494 1.268 4.9832093e-39
0.1651555 0.096881494 1.268 5.2583529e-39
0.091966309 0.10062928 1.268 6.3535517e-39
0.16136986 0.10062928 1.268 5.1640048e-39
0.16599676 0.10229497 1.268 5.3440815e-39
0.16263174 0.10812488 1.268 5.34482e-39
0.16136986 0.11312194 1.268 5.8043646e-39
0.15758421 0.118119 1.268 5.8036401e-39
0.16136986 0.11562047 1.268 5.8043618e-39
0.094490074 0.12186679 1.268 1.1589233e-38
0.15001291 0.12186679 1.268 5.6224663e-39
0.15674296 0.12228322 1.268 5.433064e-39
0.094490074 0.1256146 1.268 1.1223326e-38
0.098275721 0.12811312 1.268 1.1316246e-38
0.10206137 0.12811312 1.268 1.1315894e-38
0.1071089 0.12811312 1.268 1.1133295e-38
0.14748915 0.12811312 1.268 5.0678674e-39
0.15001291 0.1256146 1.268 4.9760291e-39
0.10374388 0.1314445 1.268 1.1041115e-38
0.10795015 0.13227734 1.268 1.0949266e-38
0.10458513 0.13560872 1.268 1.1134746e-38
0.10837078 0.13685799 1.268 1.1134383e-38
0.13739409 0.13810724 1.268 1.1866191e-38
0.11383894 0.14227146 1.268 1.214637e-38
0.13487032 0.1431043 1.268 1.2697729e-38
0.10879141 0.14726853 1.268 1.2978623e-38
0.11341831 0.14685211 1.268 1.2793512e-38
0.13402906 0.14726853 1.268 1.251298e-38
0.089724705 0.052071691 1.2720001 5.346971e-39
0.093522295 0.052071691 1.2720001 4.7923819e-39
0.098163784 0.052489426 1.2720001 4.0569875e-39
0.10491506 0.052071691 1.2720001 5.811919e-39
0.11251024 0.053324897 1.2720001 7.0111404e-39
0.11630782 0.052071691 1.2720001 7.3813509e-39
0.12137128 0.052071691 1.2720001 8.386896e-39
0.12643474 0.052071691 1.2720001 8.2875243e-39
0.13023232 0.053324897 1.2720001 1.02175e-38
0.1720058 0.053324897 1.2720001 6.282227e-39
0.078331932 0.057084516 1.2720001 6.7194742e-39
0.15048613 0.055831309 1.2720001 7.5578808e-39
0.1720058 0.057084516 1.2720001 7.1083919e-39
0.17706925 0.058337722 1.2720001 7.0118831e-39
0.074534342 0.060844135 1.2720001 6.997119e-39
0.077066071 0.062097341 1.2720001 6.627989e-39
0.17327167 0.063350543 1.2720001 5.8014765e-39
0.17706925 0.062097341 1.2720001 6.2646183e-39
0.18171076 0.06251508 1.2720001 6.2617498e-39
0.1859303 0.063350543 1.2720001 6.3521406e-39
0.077066071 0.068363369 1.2720001 6.3542888e-39
0.17327167 0.067110166 1.2720001 5.7110928e-39
0.17706925 0.067110166 1.2720001 5.8958512e-39
0.18171076 0.067527905 1.2720001 5.8972861e-39
0.1859303 0.068363369 1.2720001 6.0802326e-39
0.079597794 0.072122991 1.2720001 5.3426634e-39
0.17327167 0.072122991 1.2720001 5.8065184e-39
0.17706926 0.072122991 1.2720001 5.6221356e-39
0.18171076 0.071705252 1.2720001 5.5299399e-39
0.082973436 0.077553555 1.2720001 5.1571973e-39
0.087192975 0.078389019 1.2720001 5.0667968e-39
0.18086684 0.077135816 1.2720001 5.1597155e-39
0.083395384 0.082148641 1.2720001 5.6160105e-39
0.088036887 0.082566373 1.2720001 5.066794e-39
0.17706926 0.082148641 1.2720001 6.2581457e-39
0.18086684 0.080895431 1.2720001 6.6290764e-39
0.083395384 0.087161466 1.2720001 5.9855021e-39
0.088036887 0.087579206 1.2720001 5.4348478e-39
0.17327167 0.087161466 1.2720001 5.9862265e-39
0.17706926 0.087161466 1.2720001 8.8359898e-39
0.083395384 0.093427494 1.2720001 5.8947358e-39
0.0888808 0.092592023 1.2720001 5.5270336e-39
0.16820821 0.093427494 1.2720001 5.7175388e-39
0.1720058 0.092174284 1.2720001 6.1734834e-39
0.17580339 0.090921082 1.2720001 9.2051226e-39
0.084661245 0.095933907 1.2720001 5.6192279e-39
0.088458836 0.095933907 1.2720001 5.711062e-39
0.16820821 0.097187117 1.2720001 5.3473213e-39
0.089724705 0.10094673 1.2720001 5.8943812e-39
0.16820821 0.10094673 1.2720001 5.2518873e-39
0.094788156 0.10721277 1.2720001 5.0657066e-39
0.16694236 0.10595956 1.2720001 5.4344905e-39
0.094788156 0.11097238 1.2720001 5.6141874e-39
0.097319879 0.11849161 1.2720001 1.1314448e-38
0.16187888 0.11849161 1.2720001 5.7110844e-39
0.16567649 0.1172384 1.2720001 5.6192489e-39
0.092256427 0.12099802 1.2720001 1.1589232e-38
0.15554959 0.12099802 1.2720001 5.6199663e-39
0.16187888 0.12225123 1.2720001 5.4337772e-39
0.093100339 0.12768179 1.2720001 1.0949973e-38
0.15217395 0.12768179 1.2720001 4.6065347e-39
0.1563935 0.12684631 1.2720001 6.716963e-39
0.16061303 0.12601085 1.2720001 7.5474398e-39
0.094788156 0.13102368 1.2720001 1.1320192e-38
0.09858574 0.13227688 1.2720001 1.131841e-38
0.10238333 0.1335301 1.2720001 1.113403e-38
0.14711049 0.13269463 1.2720001 1.0030213e-38
0.151752 0.13227689 1.2720001 9.2923002e-39
0.15554959 0.13102368 1.2720001 9.2951728e-39
0.099007696 0.13687198 1.2720001 1.1597503e-38
0.10322724 0.13770744 1.2720001 1.1596433e-38
0.11251024 0.13854291 1.2720001 1.0950713e-38
0.14162508 0.13854291 1.2720001 1.2974313e-38
0.14542267 0.1360365 1.2720001 1.2331464e-38
0.099007696 0.1418848 1.2720001 1.2243578e-38
0.10364919 0.14230253 1.2720001 1.2242148e-38
0.10871265 0.14230253 1.2720001 1.2240722e-38
0.11251024 0.14104933 1.2720001 1.1594648e-38
0.1378275 0.14230253 1.2720001 1.2974313e-38
0.14162508 0.14230253 1.2720001 1.3249098e-38
0.091348231 0.04850198 1.2770001 5.620695e-39
0.11676501 0.04850198 1.2770001 8.5773731e-39
0.12227198 0.047663227 1.2770002 8.020626e-39
0.12693173 0.04850198 1.2770001 5.9941439e-39
0.13074423 0.04850198 1.2770001 5.6264459e-39
0.095160745 0.051018246 1.2770001 3.8708039e-39
0.10151494 0.051018246 1.2770001 4.5204753e-39
0.10786914 0.053534508 1.2770001 5.0793874e-39
0.11168166 0.052276377 1.2770001 7.2902412e-39
0.13074423 0.051018246 1.2770001 5.7136165e-39
0.17649445 0.053534508 1.2770001 6.9268663e-39
0.069743969 0.058567036 1.2770001 9.8501375e-39
0.073980093 0.057728283 1.2770002 6.9038654e-39
0.077368997 0.056050774 1.2770001 7.0875378e-39
0.13328592 0.056050774 1.2770001 1.123165e-38
0.1358276 0.056050774 1.2770001 8.0134724e-39
0.14091095 0.056050774 1.2770001 6.0878137e-39
0.14726514 0.056050774 1.2770001 6.2729168e-39
0.17776528 0.056050774 1.2770001 7.6633454e-39
0.18242502 0.057728283 1.2770002 7.377423e-39
0.18666115 0.057308905 1.2770001 6.3543042e-39
0.069743969 0.061083302 1.2770001 1.0037064e-38
0.073556483 0.062341433 1.2770001 6.9989225e-39
0.18411948 0.061083302 1.2770001 6.1681165e-39
0.18666115 0.061083302 1.2770001 6.1663144e-39
0.074827321 0.067373961 1.2770001 6.7219839e-39
0.077368997 0.066115826 1.2770001 6.4454012e-39
0.18411948 0.066115826 1.2770001 6.2639064e-39
0.18666115 0.066115826 1.2770001 6.3546601e-39
0.074827321 0.071148358 1.2770001 6.0795054e-39
0.077368997 0.071148358 1.2770001 5.9876671e-39
0.18411948 0.073664621 1.2770001 5.5281393e-39
0.18666115 0.072406486 1.2770001 5.6192573e-39
0.079910681 0.076180883 1.2770001 5.2486783e-39
0.18411948 0.077439018 1.2770001 5.2508279e-39
0.18666115 0.076180883 1.2770001 5.4334227e-39
0.079910681 0.083729677 1.2770001 6.5340039e-39
0.18327224 0.082890928 1.2770002 8.2849768e-39
0.079910681 0.088762209 1.2770001 6.7198287e-39
0.18242502 0.087923452 1.2770002 9.8479655e-39
0.079910681 0.091278471 1.2770001 6.5368752e-39
0.083723195 0.091278471 1.2770001 5.9865726e-39
0.087535709 0.091278471 1.2770001 5.7110648e-39
0.17818891 0.092955977 1.2770002 9.1121997e-39
0.083299585 0.097988509 1.2770002 5.3430109e-39
0.087535709 0.098827265 1.2770001 5.8029017e-39
0.091348231 0.098827265 1.2770001 6.2617162e-39
0.17268194 0.097569138 1.2770001 5.6192363e-39
0.17776528 0.09756913 1.2770001 7.0878685e-39
0.17268193 0.10260166 1.2770001 5.2490202e-39
0.092619069 0.10763419 1.2770001 4.0555189e-39
0.16632773 0.10889232 1.2770001 5.436294e-39
0.092619069 0.11140858 1.2770001 5.4294416e-39
0.095160745 0.11392485 1.2770001 8.1859358e-39
0.095160745 0.11644112 1.2770001 1.0117355e-38
0.16759858 0.12273178 1.2770001 5.7064124e-39
0.1587027 0.12902243 1.2770001 9.2951757e-39
0.16293883 0.12818369 1.2770002 1.0216761e-38
0.16632773 0.12776431 1.2770001 1.0583384e-38
0.092619069 0.13279684 1.2770001 1.123015e-38
0.095160745 0.13405497 1.2770001 1.1414184e-38
0.15785548 0.13321623 1.2770002 1.168791e-38
0.16251522 0.1315387 1.2770001 1.3252699e-38
0.092619069 0.13782936 1.2770001 1.1783325e-38
0.096007973 0.13824874 1.2770002 1.169149e-38
0.14768875 0.13824874 1.2770002 1.2513336e-38
0.15234852 0.13782936 1.2770001 1.2788488e-38
0.15616103 0.13657123 1.2770001 1.2696298e-38
0.14726514 0.14286189 1.2770001 1.2512976e-38
0.15234852 0.14286189 1.2770001 1.2974313e-38
0.092981711 0.046165768 1.2820001 6.2678567e-39
0.096809156 0.048691887 1.2820001 4.7934637e-39
0.10191242 0.048691887 1.2820001 5.8090351e-39
0.10701567 0.048691887 1.2820001 8.667059e-39
0.11339474 0.047428828 1.2820001 8.5752221e-39
0.11722219 0.046165768 1.2820001 8.2972115e-39
0.12104964 0.046165768 1.2820001 8.2964927e-39
0.1261529 0.046165768 1.2820001 9.950605e-39
0.081499375 0.053744119 1.2820001 6.5372423e-39
0.087027907 0.052902084 1.2820001 5.713234e-39
0.10829148 0.051218003 1.2820001 7.841627e-39
0.11084311 0.051218003 1.2820001 8.1192816e-39
0.13635942 0.053744119 1.2820001 7.096558e-39
0.15847355 0.052902084 1.2820001 4.9828716e-39
0.17973714 0.053744119 1.2820001 7.4760618e-39
0.18228877 0.053744119 1.2820001 7.9295066e-39
0.071292855 0.056270234 1.2820001 7.9158425e-39
0.1848404 0.056270234 1.2820001 7.834095e-39
0.18994366 0.058796354 1.2820001 5.7996787e-39
0.19504692 0.057533294 1.2820001 6.2613519e-39
0.06746541 0.061322469 1.2820001 1.3258116e-38
0.071292855 0.063848585 1.2820001 8.6580809e-39
0.18994366 0.062585525 1.2820001 6.4425313e-39
0.19504692 0.063848585 1.2820001 8.1952937e-39
0.070867583 0.067216747 1.2820001 8.8424526e-39
0.18994366 0.067637756 1.2820001 6.5376094e-39
0.07767193 0.073953055 1.2820001 5.4352206e-39
0.18994366 0.072689995 1.2820001 5.801492e-39
0.07767193 0.076479167 1.2820001 5.4316332e-39
0.08022356 0.079005286 1.2820001 5.6160175e-39
0.18739203 0.079005286 1.2820001 5.4334171e-39
0.07767193 0.084057517 1.2820001 6.9020676e-39
0.08022356 0.081531405 1.2820001 5.9829937e-39
0.18739203 0.082794458 1.2820001 6.9967673e-39
0.07767193 0.089109756 1.2820001 7.2708459e-39
0.08022356 0.086583637 1.2820001 6.7187525e-39
0.1848404 0.086583637 1.2820001 9.8476095e-39
0.18739203 0.086583637 1.2820001 8.3760934e-39
0.08022356 0.094161987 1.2820001 6.3524881e-39
0.18356457 0.092898935 1.2820001 8.7430613e-39
0.08022356 0.096688099 1.2820001 5.8007605e-39
0.18356457 0.096688099 1.2820001 7.5456013e-39
0.086177371 0.10258238 1.2820001 5.1586267e-39
0.091705896 0.10426645 1.2820001 5.6177999e-39
0.17846131 0.10300339 1.2820001 5.7114221e-39
0.087878451 0.10679257 1.2820001 6.0759054e-39
0.090430081 0.10805563 1.2820001 5.2479468e-39
0.091280624 0.11352888 1.2820001 9.1057327e-39
0.16697899 0.11310786 1.2820001 5.6206894e-39
0.091705896 0.1181601 1.2820001 1.1589592e-38
0.095533341 0.11942315 1.2820001 1.1588877e-38
0.091705896 0.12321233 1.2820001 1.1222247e-38
0.17208225 0.12321233 1.2820001 7.5398994e-39
0.090430081 0.12700151 1.2820001 1.104109e-38
0.16953062 0.12826456 1.2820001 1.1408108e-38
0.17208225 0.12700151 1.2820001 1.1220491e-38
0.090430081 0.13457985 1.2820001 1.1599649e-38
0.16187572 0.13457985 1.2820001 1.3803349e-38
0.16697899 0.13205373 1.2820001 1.4353646e-38
0.090430081 0.13710596 1.2820001 1.1875877e-38
0.15804827 0.13836902 1.2820001 1.2972519e-38
0.070290118 0.038737915 1.2870001 1.1969178e-38
0.075413287 0.038737915 1.2870001 8.0999073e-39
0.060043793 0.043809853 1.2870001 1.3167361e-38
0.092063561 0.043809853 1.2870001 7.0043427e-39
0.098467521 0.043809853 1.2870001 1.2247569e-38
0.1023099 0.043809853 1.2870001 1.1602921e-38
0.10743306 0.043809853 1.2870001 1.013104e-38
0.11383701 0.043809853 1.2870001 7.9252088e-39
0.11767939 0.043809853 1.2870001 8.0174058e-39
0.12280255 0.043809853 1.2870001 8.8453574e-39
0.057482209 0.046345823 1.2870001 1.3258844e-38
0.060043793 0.047613807 1.2870001 1.3075171e-38
0.072851703 0.048881792 1.2870001 8.4708198e-39
0.077121004 0.048036467 1.2870001 8.0084137e-39
0.081390314 0.048036467 1.2870001 6.90495e-39
0.0869404 0.048881792 1.2870001 5.9883873e-39
0.090782776 0.046345823 1.2870001 5.8965672e-39
0.097186729 0.046345823 1.2870001 8.6588068e-39
0.1023099 0.046345823 1.2870001 9.2101729e-39
0.10743306 0.046345823 1.2870001 9.3977913e-39
0.11127543 0.047613807 1.2870001 8.9414879e-39
0.12920649 0.046345823 1.2870001 1.0593812e-38
0.13176808 0.046345823 1.2870001 1.0409431e-38
0.13689123 0.048881792 1.2870001 6.3636663e-39
0.060043793 0.052685745 1.2870001 1.2983693e-38
0.066874683 0.052263081 1.2870001 1.3074077e-38
0.071570911 0.052685745 1.2870001 8.4690149e-39
0.076694071 0.052685745 1.2870001 7.4563217e-39
0.08181724 0.051417761 1.2870001 6.7219923e-39
0.085659608 0.051417761 1.2870001 6.0809347e-39
0.13432966 0.05395373 1.2870001 9.2062492e-39
0.13859896 0.052263081 1.2870001 5.7219024e-39
0.15354151 0.05395373 1.2870001 5.8108414e-39
0.057482209 0.056489699 1.2870001 1.2983692e-38
0.060043793 0.056489699 1.2870001 1.2891856e-38
0.066874683 0.057335019 1.2870001 1.2982233e-38
0.13945282 0.056489699 1.2870001 6.0849368e-39
0.14457598 0.056489699 1.2870001 6.0896129e-39
0.1923922 0.057335019 1.2870001 5.4341346e-39
0.19836919 0.057757683 1.2870001 7.7310841e-39
0.067728542 0.064097606 1.2870001 1.3074804e-38
0.19324604 0.062829621 1.2870001 6.7201832e-39
0.19751534 0.062406957 1.2870001 8.9303238e-39
0.072851703 0.069169544 1.2870001 7.0010805e-39
0.19324604 0.067901559 1.2870001 7.1811754e-39
0.19666147 0.067478895 1.2870001 8.3793374e-39
0.071570911 0.072973497 1.2870001 7.0929244e-39
0.075413287 0.074241482 1.2870001 5.2526286e-39
0.19324604 0.072973497 1.2870001 6.0773516e-39
0.070290118 0.078045435 1.2870001 9.8490361e-39
0.076267146 0.078468099 1.2870001 6.2581513e-39
0.19196525 0.076777451 1.2870001 5.431985e-39
0.071570911 0.083117373 1.2870001 9.8472662e-39
0.076267146 0.082694709 1.2870001 7.2697711e-39
0.19068445 0.081849389 1.2870001 5.9851447e-39
0.071570911 0.088189311 1.2870001 9.1097208e-39
0.076267146 0.087766647 1.2870001 7.5467125e-39
0.18812287 0.089457296 1.2870001 8.3753745e-39
0.071570911 0.093261249 1.2870001 7.2694222e-39
0.076694071 0.093261249 1.2870001 6.7198357e-39
0.18812287 0.093261249 1.2870001 7.2697571e-39
0.077974863 0.097065203 1.2870001 5.9833595e-39
0.080536447 0.099601172 1.2870001 5.0653618e-39
0.1829997 0.099601172 1.2870001 6.9045465e-39
0.18726902 0.098755851 1.2870001 6.5354164e-39
0.08181724 0.10340513 1.2870001 5.70749e-39
0.088221192 0.10467311 1.2870001 4.8831202e-39
0.1829997 0.10213714 1.2870001 6.2645763e-39
0.083098032 0.10847706 1.2870001 8.8309605e-39
0.086513475 0.10889973 1.2870001 8.1895512e-39
0.17189953 0.10889973 1.2870001 5.5263288e-39
0.17531496 0.10720908 1.2870001 5.5266861e-39
0.083098032 0.113549 1.2870001 1.1315527e-38
0.0869404 0.113549 1.2870001 1.0488292e-38
0.17019179 0.11481699 1.2870001 5.7114431e-39
0.083098032 0.11862094 1.2870001 1.076416e-38
0.0869404 0.11862094 1.2870001 1.0855985e-38
0.17019179 0.11862094 1.2870001 5.5259771e-39
0.083098032 0.12242489 1.2870001 1.076524e-38
0.087367341 0.12327021 1.2870001 1.1040375e-38
0.090782776 0.12496086 1.2870001 1.1039293e-38
0.088221192 0.12749684 1.2870001 1.1226557e-38
0.088221192 0.13130079 1.2870001 1.1504219e-38
0.090782776 0.13130079 1.2870001 1.1228712e-38
0.17147258 0.13130079 1.2870001 1.4351136e-38
0.16250706 0.13764071 1.2870001 1.4077776e-38
0.16506864 0.13637273 1.2870001 1.4445123e-38
0.067939036 0.038858313 1.291 1.3719434e-38
0.073078118 0.038858313 1.291 1.0126378e-38
0.078217208 0.037586387 1.291 6.2653554e-39
0.08078675 0.036314461 1.291 6.9150296e-39
0.098773554 0.038858313 1.291 1.2333671e-38
0.10262787 0.038858313 1.291 1.1965611e-38
0.10776696 0.038858313 1.291 1.0129275e-38
0.11290604 0.038858313 1.291 7.5589683e-39
0.11676035 0.038858313 1.291 7.2831058e-39
0.062799953 0.043946017 1.291 1.3167713e-38
0.066654265 0.042674091 1.291 1.3075147e-38
0.071793348 0.042674091 1.291 1.0588054e-38
0.076932438 0.042674091 1.291 7.7339932e-39
0.08207152 0.043946017 1.291 6.536899e-39
0.087210611 0.043946017 1.291 5.8940505e-39
0.093634464 0.041402165 1.291 9.3059769e-39
0.097488783 0.042674091 1.291 1.1788035e-38
0.10262787 0.041402165 1.291 1.3073369e-38
0.10776696 0.041402165 1.291 1.1050121e-38
0.11247778 0.042250119 1.2910001 8.200002e-39
0.11804512 0.041402165 1.291 7.6479213e-39
0.056376096 0.049033716 1.291 1.3167008e-38
0.062799953 0.04776179 1.291 1.3075527e-38
0.066654265 0.04776179 1.291 1.3075517e-38
0.071365088 0.047337815 1.2910001 1.0219639e-38
0.075647667 0.046489865 1.291 8.5626581e-39
0.083356291 0.046489865 1.291 6.4446978e-39
0.087210611 0.046489865 1.291 5.986958e-39
0.13474716 0.049033716 1.291 5.7204493e-39
0.13902974 0.047337815 1.2910001 8.6606369e-39
0.14245579 0.049033716 1.291 6.8239284e-39
0.05252178 0.051577568 1.291 1.2984049e-38
0.056804355 0.052425519 1.2910001 1.3075527e-38
0.062799953 0.052849494 1.291 1.2984049e-38
0.065369494 0.05412142 1.291 1.3076236e-38
0.13474716 0.051577568 1.291 5.6239502e-39
0.14245579 0.052849494 1.291 6.3658411e-39
0.14631011 0.05412142 1.291 6.3672844e-39
0.1514492 0.052849494 1.291 5.7208346e-39
0.19127712 0.05412142 1.291 5.9023392e-39
0.20155528 0.05412142 1.291 6.1735185e-39
0.055091325 0.056665268 1.291 1.2984049e-38
0.061943442 0.058361169 1.2910001 1.2800015e-38
0.065369494 0.05920912 1.291 1.3259897e-38
0.20284006 0.057937194 1.291 8.5579778e-39
0.20926391 0.056665268 1.291 5.2486573e-39
0.21183345 0.057937194 1.291 4.7963055e-39
0.061515182 0.063024893 1.291 1.2707462e-38
0.065369494 0.063024893 1.291 1.3167706e-38
0.20284006 0.063024893 1.291 1.10429e-38
0.20926391 0.061752971 1.291 4.423591e-39
0.21183345 0.063024893 1.291 3.9690798e-39
0.067082524 0.067688629 1.2910001 1.2798926e-38
0.19898574 0.069384523 1.291 8.5633615e-39
0.20284006 0.068112597 1.291 8.9292476e-39
0.20797914 0.066840678 1.291 6.0762712e-39
0.21311823 0.068112597 1.291 4.6991031e-39
0.067939036 0.0732003 1.291 1.206281e-38
0.19770098 0.0732003 1.291 6.9067325e-39
0.20155528 0.0732003 1.291 6.9056507e-39
0.21311823 0.071928374 1.291 5.3419557e-39
0.066654265 0.078288004 1.291 1.2431233e-38
0.073078118 0.078288004 1.291 7.5449118e-39
0.19256189 0.07955993 1.291 5.433057e-39
0.19727272 0.077864036 1.2910001 5.7121508e-39
0.20155528 0.077016078 1.291 5.9890964e-39
0.066654265 0.083375707 1.291 1.2797135e-38
0.19299015 0.083799683 1.2910001 6.3567929e-39
0.19770098 0.082103781 1.291 5.5342195e-39
0.066654265 0.088463411 1.291 1.2153574e-38
0.19256188 0.088463411 1.291 7.0907636e-39
0.19727272 0.088887386 1.2910001 6.1745652e-39
0.066654265 0.093551107 1.291 1.1324543e-38
0.19127712 0.093551107 1.291 6.7187525e-39
0.067939036 0.09863881 1.291 1.0586263e-38
0.071793348 0.098638803 1.291 7.0825184e-39
0.076504186 0.099062786 1.2910001 5.5234645e-39
0.19127712 0.09863881 1.291 6.5350731e-39
0.070508577 0.10245459 1.291 9.6628848e-39
0.078217208 0.10372651 1.291 8.0934179e-39
0.18356848 0.10499844 1.291 5.8082784e-39
0.18742278 0.10372652 1.291 6.5404485e-39
0.19127712 0.10372651 1.291 7.3662603e-39
0.076932438 0.10754228 1.291 1.1130427e-38
0.08078675 0.10754228 1.291 8.9210023e-39
0.17842939 0.10754228 1.291 5.5306322e-39
0.1822837 0.10754228 1.291 5.6256935e-39
0.18742278 0.10754228 1.291 6.2663923e-39
0.19256189 0.10754228 1.291 7.2740675e-39
0.072221607 0.11093409 1.2910001 1.1409175e-38
0.076932438 0.11135806 1.291 1.1222978e-38
0.08078675 0.11135806 1.291 1.1131497e-38
0.17200553 0.11262999 1.291 5.6199607e-39
0.17671637 0.11093409 1.2910001 5.5317056e-39
0.1822837 0.11008614 1.291 5.7189625e-39
0.18785106 0.11093409 1.2910001 5.8961819e-39
0.19256188 0.11135806 1.291 5.2486741e-39
0.078217208 0.11644576 1.291 1.113151e-38
0.08078675 0.11644576 1.291 1.1040028e-38
0.17329031 0.11644576 1.291 5.6192433e-39
0.078217208 0.12153347 1.291 1.1226938e-38
0.08078675 0.12153347 1.291 1.0950353e-38
0.17329031 0.12026154 1.291 5.340511e-39
0.17714463 0.12153347 1.291 7.1761489e-39
0.08249978 0.12619719 1.2910001 1.1319836e-38
0.08592584 0.12662116 1.291 1.1227638e-38
0.17585985 0.12534924 1.291 1.0671277e-38
0.083356291 0.13170886 1.291 1.1872643e-38
0.08592584 0.13170886 1.291 1.1688966e-38
0.17329031 0.13298079 1.291 1.471919e-38
0.17585985 0.13298079 1.291 1.4534441e-38
0.16815123 0.13679656 1.291 1.4168185e-38
0.17200553 0.13679656 1.291 1.3983441e-38
0.081099637 0.039008811 1.296 6.35863e-39
0.093997113 0.039008811 1.296 9.6718923e-39
0.11979206 0.039008811 1.296 7.467853e-39
0.12237155 0.039008811 1.296 7.8348335e-39
0.081099637 0.041562513 1.296 6.3546755e-39
0.091417618 0.041562513 1.296 7.3724148e-39
0.096576609 0.041562513 1.296 1.1696923e-38
0.1236613 0.041562513 1.296 8.4762302e-39
0.12753054 0.044116218 1.296 1.1513248e-38
0.13139978 0.042839363 1.296 1.1971357e-38
0.14171776 0.042839363 1.296 1.0051505e-38
0.13526903 0.046669919 1.296 1.0133222e-38
0.1430075 0.046669919 1.296 7.1912872e-39
0.14816649 0.047946773 1.296 8.02644e-39
0.19459741 0.049223624 1.296 8.8500658e-39
0.1971769 0.049223624 1.296 8.572023e-39
0.052725196 0.054331027 1.296 1.2984048e-38
0.055304691 0.054331027 1.296 1.3075885e-38
0.14687675 0.051777326 1.296 6.2747357e-39
0.15074599 0.051777326 1.296 5.5382566e-39
0.15719473 0.051777326 1.296 4.2460535e-39
0.18814868 0.054331027 1.296 7.0047267e-39
0.1937376 0.052628558 1.296 6.0906891e-39
0.1971769 0.053054176 1.296 6.179645e-39
0.20491539 0.054331027 1.296 5.8022038e-39
0.20749488 0.054331027 1.296 5.6156279e-39
0.21179405 0.053479791 1.296 5.2497377e-39
0.21523336 0.054331027 1.296 5.1632958e-39
0.20749488 0.058161583 1.296 7.177923e-39
0.21007438 0.059438433 1.296 4.7909231e-39
0.21652311 0.058161583 1.296 5.5367292e-39
0.20749488 0.063268989 1.296 8.650172e-39
0.21007438 0.06454584 1.296 4.238848e-39
0.2165231 0.063268989 1.296 5.2587116e-39
0.22039235 0.063268989 1.296 5.3494681e-39
0.062183347 0.068802014 1.296 1.2522721e-38
0.065622672 0.069653243 1.296 1.2799293e-38
0.20749488 0.069653243 1.296 6.3524923e-39
0.21007438 0.069653243 1.296 4.78771e-39
0.21781285 0.068376392 1.296 5.3430207e-39
0.22039235 0.068376392 1.296 5.4334199e-39
0.062183347 0.073058188 1.296 1.2246498e-38
0.065622672 0.073483802 1.296 1.2431238e-38
0.20491539 0.073483802 1.296 6.2602967e-39
0.20749488 0.073483802 1.296 5.8004087e-39
0.21136412 0.073483802 1.296 5.4330738e-39
0.21652311 0.073483802 1.296 5.6192559e-39
0.062183347 0.079016827 1.296 1.2246501e-38
0.1997564 0.079868056 1.296 5.6249816e-39
0.20405555 0.079016827 1.296 5.6242683e-39
0.20749488 0.077314354 1.296 5.8965532e-39
0.21265388 0.077314354 1.296 5.8036528e-39
0.21523336 0.077314354 1.296 5.8036556e-39
0.063043177 0.083698615 1.296 1.2338684e-38
0.19846666 0.084975466 1.296 5.9026405e-39
0.20233589 0.083698615 1.296 5.4441805e-39
0.063043177 0.087529168 1.296 1.2247207e-38
0.1997564 0.087529168 1.296 5.9022873e-39
0.20233589 0.087529168 1.296 5.6260592e-39
0.061753429 0.090082869 1.296 1.1971703e-38
0.19459741 0.09263657 1.296 6.6287163e-39
0.19846666 0.09263657 1.296 6.2620903e-39
0.20233589 0.090082869 1.296 5.8050653e-39
0.065622672 0.097743981 1.296 1.1233784e-38
0.19459741 0.09646713 1.296 6.3510518e-39
0.1971769 0.09646713 1.296 6.6283533e-39
0.068202168 0.10285138 1.296 1.0678456e-38
0.073361158 0.10285138 1.296 8.7412956e-39
0.075940654 0.10285138 1.296 7.6374704e-39
0.19459741 0.10157453 1.296 7.5492138e-39
0.1971769 0.10157453 1.296 8.2846124e-39
0.068202168 0.10668194 1.296 1.104615e-38
0.072071411 0.10668194 1.296 1.1132597e-38
0.075940654 0.10540508 1.296 1.0396113e-38
0.19459741 0.10540508 1.296 8.6533908e-39
0.19846664 0.10668194 1.296 8.9270952e-39
0.068202168 0.1105125 1.296 1.1323444e-38
0.070781663 0.1130662 1.296 1.1502809e-38
0.17912044 0.1130662 1.296 5.4413008e-39
0.18298969 0.1130662 1.296 5.4420155e-39
0.18685892 0.1130662 1.296 5.5295532e-39
0.19846666 0.11178935 1.296 5.6170867e-39
0.073361158 0.1156199 1.296 1.1408819e-38
0.075940654 0.11689675 1.296 1.1316623e-38
0.1778307 0.11689675 1.296 5.5277595e-39
0.18298969 0.11689675 1.296 5.7092725e-39
0.18814868 0.11689675 1.296 5.7942949e-39
0.19330767 0.1156199 1.296 4.7859191e-39
0.075940654 0.12072731 1.296 1.1412047e-38
0.18298969 0.12200416 1.296 9.7536301e-39
0.18685892 0.12072731 1.296 1.0391801e-38
0.078520149 0.12583472 1.296 1.1689338e-38
0.081099637 0.12838842 1.296 1.1689326e-38
0.17826061 0.12753719 1.296 1.3063651e-38
0.18169993 0.12711157 1.296 1.4074916e-38
0.081099637 0.13221897 1.296 1.214923e-38
0.17826061 0.13179336 1.296 1.4350053e-38
0.18169993 0.13094212 1.296 1.4351128e-38
0.14226452 -0.0095482422 1.3010001 1.6873584e-38
0.14614868 -0.0095482422 1.3010001 1.6135651e-38
0.084001966 0.03787753 1.3010001 6.8232025e-39
0.089180864 0.039159309 1.3010001 6.4544298e-39
0.091770306 0.03787753 1.3010001 8.2011007e-39
0.098243922 0.03787753 1.3010001 9.8530424e-39
0.10342282 0.036595751 1.3010001 8.012385e-39
0.10860171 0.036595751 1.3010001 7.1880347e-39
0.11248588 0.036595751 1.3010001 7.1001565e-39
0.11507533 0.036595751 1.3010001 7.1023117e-39
0.14226452 0.039159309 1.3010001 1.0695765e-38
0.084001966 0.041722864 1.3010001 5.8944177e-39
0.08788614 0.041722864 1.3010001 5.5285148e-39
0.12802257 0.041722864 1.3010001 1.0591311e-38
0.1375172 0.0434319 1.3010001 1.1605845e-38
0.147875 0.0434319 1.3010001 1.1078249e-38
0.14614868 0.048131749 1.3010001 7.0112105e-39
0.15262231 0.048131749 1.3010001 9.0398843e-39
0.15650648 0.049413528 1.3010001 6.6467622e-39
0.21606374 0.049413528 1.3010001 6.9135778e-39
0.2082954 0.051977083 1.3010001 5.6177943e-39
0.21088485 0.051977083 1.3010001 5.2493776e-39
0.21779005 0.052831601 1.3010001 5.1643818e-39
0.22124264 0.054540638 1.3010001 5.7186192e-39
0.22124264 0.058385972 1.3010001 5.536732e-39
0.22383209 0.067358412 1.3010001 5.6160119e-39
0.058107503 0.072485521 1.3010001 1.2613485e-38
0.060696948 0.076330855 1.3010001 1.2337978e-38
0.21088485 0.076330855 1.3010001 5.8022108e-39
0.20743226 0.081885226 1.3010001 5.4409603e-39
0.21217957 0.081457965 1.3010001 5.6210538e-39
0.060696948 0.085303299 1.3010001 1.2430162e-38
0.20656912 0.086157821 1.3010001 5.2565676e-39
0.063286394 0.09299396 1.3010001 1.1787674e-38
0.20311651 0.09299396 1.3010001 6.1695318e-39
0.20700067 0.090430409 1.3010001 5.6181671e-39
0.20052706 0.096839294 1.3010001 6.998561e-39
0.065875843 0.10196641 1.3010001 1.0957551e-38
0.20052706 0.10196641 1.3010001 8.9285301e-39
0.063286394 0.10581174 1.3010001 1.1233059e-38
0.065875843 0.10581174 1.3010001 1.1048305e-38
0.068465292 0.11350241 1.3010001 1.1507832e-38
0.071917884 0.11777501 1.3010001 1.1502451e-38
0.19275872 0.11862952 1.3010001 7.2654789e-39
0.19664291 0.11734774 1.3010001 7.0882679e-39
0.073644184 0.12247485 1.3010001 1.1690422e-38
0.076233625 0.12375662 1.3010001 1.1689342e-38
0.18757983 0.12375662 1.3010001 1.2602665e-38
0.19016927 0.12247485 1.3010001 1.1865474e-38
0.078823075 0.12888373 1.3010001 1.2057749e-38
0.18499039 0.12760195 1.3010001 1.4075986e-38
0.18757983 0.12632018 1.3010001 1.3983424e-38
0.19016927 0.12632018 1.3010001 1.4075974e-38
0.18412726 0.13315633 1.3010001 1.3892306e-38
0.11551758 -0.012158345 1.3060001 1.6488923e-38
0.12851457 -0.012158345 1.3060001 1.5753514e-38
0.13284692 -0.013016148 1.3060001 1.6776355e-38
0.13891217 -0.012158345 1.3060001 1.7425326e-38
0.11291818 -0.0095849372 1.3060001 1.650407e-38
0.11725052 -0.0087271351 1.3060001 1.7612574e-38
0.12244931 -0.0078693321 1.3060001 1.742855e-38
0.12721488 -0.0082982332 1.3060001 1.6415114e-38
0.13284692 -0.0087271351 1.3060001 1.6783563e-38
0.13891217 -0.0095849372 1.3060001 1.770335e-38
0.14281127 -0.00701153 1.3060001 1.7427485e-38
0.14844331 -0.007869333 1.3060001 1.5859787e-38
0.15190917 -0.0082982332 1.3060001 1.5214423e-38
0.12331577 -0.0031514189 1.3060001 1.6230373e-38
0.12721488 -0.0031514191 1.3060001 1.5308418e-38
0.13371338 -0.0031514189 1.3060001 1.4846026e-38
0.14801008 -0.0031514189 1.3060001 1.7060142e-38
0.15450856 -0.0044381227 1.3060001 1.6225342e-38
0.12331577 0.0007086923 1.3060001 1.5582848e-38
0.12851457 0.0019953961 1.3060001 1.5025353e-38
0.14930977 0.0007086923 1.3060001 1.7798067e-38
0.14930977 0.0071422108 1.3060001 1.733782e-38
0.15450856 0.0071422108 1.3060001 1.7431815e-38
0.15797444 0.0075711124 1.3060001 1.7615113e-38
0.15710796 0.011002323 1.3060001 1.6972278e-38
0.088223904 0.034162991 1.3060001 9.3060077e-39
0.093422696 0.034162991 1.3060001 8.0174297e-39
0.098621495 0.032876287 1.3060001 7.4685579e-39
0.10252059 0.034162991 1.3060001 7.006142e-39
0.10771938 0.034162991 1.3060001 6.639886e-39
0.11161849 0.034162991 1.3060001 6.8271541e-39
0.11551758 0.034162991 1.3060001 7.2870561e-39
0.13371338 0.032876287 1.3060001 7.8391285e-39
0.14281127 0.032876287 1.3060001 8.4812791e-39
0.087790668 0.037594199 1.3060001 7.3738679e-39
0.094722398 0.036736395 1.3060001 8.5680797e-39
0.097321793 0.036736395 1.3060001 8.6588306e-39
0.11811698 0.036736395 1.3060001 7.1952234e-39
0.12071638 0.036736395 1.3060001 7.1952234e-39
0.13241369 0.039309803 1.3060001 1.0037787e-38
0.13891217 0.039309803 1.3060001 1.0504188e-38
0.14281127 0.036736395 1.3060001 9.4943436e-39
0.14801008 0.039309803 1.3060001 1.1896821e-38
0.13631278 0.041883212 1.3060001 1.1237417e-38
0.14671037 0.041883212 1.3060001 1.1078961e-38
0.15277565 0.043598816 1.3060001 1.4390081e-38
0.15710796 0.047030028 1.3060001 1.2270666e-38
0.21862707 0.047887832 1.3060001 9.6700832e-39
0.22209293 0.048316732 1.3060001 7.1836949e-39
0.22339262 0.053463545 1.3060001 5.9004993e-39
0.22469231 0.058610361 1.3060001 5.6257019e-39
0.22729172 0.059897065 1.3060001 5.8061429e-39
0.22469231 0.062470473 1.3060001 5.5309923e-39
0.22729172 0.062470473 1.3060001 5.7121522e-39
0.22469231 0.065043882 1.3060001 5.4355681e-39
0.22729172 0.065043882 1.3060001 5.6174454e-39
0.21299502 0.081771031 1.3060001 5.6206936e-39
0.20909593 0.088204548 1.3060001 5.3444599e-39
0.21256179 0.086488947 1.3060001 5.2511894e-39
0.21776059 0.086488947 1.3060001 5.3423047e-39
0.20649654 0.093351364 1.3060001 6.0759026e-39
0.21169533 0.090777956 1.3060001 5.8007605e-39
0.062663153 0.09764038 1.3060001 1.1418537e-38
0.20389713 0.097211473 1.3060001 6.998554e-39
0.20649654 0.095924772 1.3060001 6.627989e-39
0.062229916 0.10235828 1.3060001 1.114195e-38
0.20389713 0.10235828 1.3060001 8.651939e-39
0.06222992 0.1075051 1.3060001 1.1325256e-38
0.066129014 0.10879181 1.3060001 1.1232689e-38
0.063529618 0.11136521 1.3060001 1.1602189e-38
0.066129014 0.11265191 1.3060001 1.1510343e-38
0.06872841 0.11779873 1.3060001 1.1690786e-38
0.19869834 0.11908544 1.3060001 9.2973365e-39
0.20129773 0.11651203 1.3060001 8.6519684e-39
0.06872841 0.12165885 1.3060001 1.1877329e-38
0.071327813 0.12294555 1.3060001 1.1876607e-38
0.19349954 0.12294555 1.3060001 1.2421877e-38
0.19609894 0.12165885 1.3060001 1.2330053e-38
0.073060751 0.12766346 1.3060001 1.2243586e-38
0.076526605 0.12809236 1.3060001 1.2058472e-38
0.18830074 0.12937906 1.3060001 1.4352201e-38
0.19263308 0.12852126 1.3060001 1.4168885e-38
0.13683464 -0.017371412 1.3110001 1.668091e-38
0.1185692 -0.012204893 1.3110001 1.6861651e-38
0.12248322 -0.012204893 1.3110001 1.6765478e-38
0.12770191 -0.013496523 1.3110001 1.5101666e-38
0.13161594 -0.014788153 1.3110001 1.4740131e-38
0.13683464 -0.013496523 1.3110001 1.797813e-38
0.1133505 -0.0070383735 1.3110001 1.6968679e-38
0.11595985 -0.0070383735 1.3110001 1.7338532e-38
0.12117855 -0.0096216332 1.3110001 1.8161414e-38
0.13161594 -0.0070383735 1.3110001 1.5313119e-38
0.13770442 -0.0078994604 1.3110001 1.7795552e-38
0.15640476 -0.0070383735 1.3110001 1.5212981e-38
0.1133505 -0.0044551138 1.3110001 1.7244533e-38
0.11726452 -0.0031634839 1.3110001 1.7150538e-38
0.12117855 -0.0031634839 1.3110001 1.6965781e-38
0.13161594 -0.0031634839 1.3110001 1.4752027e-38
0.13813931 -0.0031634839 1.3110001 1.5586835e-38
0.14335802 -0.0031634839 1.3110001 1.7061595e-38
0.15249074 -0.0031634839 1.3110001 1.650517e-38
0.15683965 -0.0027329407 1.3110001 1.6502282e-38
0.11726452 0.0020030353 1.3110001 1.7240581e-38
0.12204833 0.0024335785 1.3110001 1.6319693e-38
0.12639724 0.0020030353 1.3110001 1.4845636e-38
0.13292062 0.0020030353 1.3110001 1.4381431e-38
0.14379291 0.0015724921 1.3110001 1.5220932e-38
0.14814183 0.0024335787 1.3110001 1.6695328e-38
0.15249074 0.0020030353 1.3110001 1.7796992e-38
0.15640476 0.0020030353 1.3110001 1.7518956e-38
0.11726452 0.0058779251 1.3110001 1.7151256e-38
0.12291811 0.006739012 1.3110001 1.6044541e-38
0.12770191 0.0071695549 1.3110001 1.5210117e-38
