# .PCD v0.7 - Point Cloud Data file format
VERSION 0.7
FIELDS x y z rgb
SIZE 4 4 4 4
TYPE F F F F
COUNT 1 1 1 1
WIDTH 1017
HEIGHT 1
VIEWPOINT 0 0 0 1 0 0 0
POINTS 1017
DATA ascii
0.031881273 0.073161498 1.2540001 5.5277385e-39
0.037289057 0.073573321 1.2540001 5.6185076e-39
0.042280857 0.072337851 1.2540001 5.4351995e-39
0.028553408 0.077279739 1.2540001 5.4369764e-39
0.031049307 0.077279739 1.2540001 5.3454996e-39
0.037289057 0.078515217 1.2540001 5.9865614e-39
0.041032907 0.077279739 1.2540001 6.078041e-39
0.038537007 0.084692575 1.2540001 5.9858496e-39
0.028667258 0.062703095 1.2590001 4.9753116e-39
0.037437737 0.062703095 1.2590001 5.2515356e-39
0.043702368 0.060222302 1.2590001 5.2569249e-39
0.047461145 0.060222302 1.2590001 5.2522656e-39
0.052472852 0.0614627 1.2590001 5.5277847e-39
0.032008395 0.066010833 1.2590001 4.9749501e-39
0.037020098 0.066010833 1.2590001 5.1582623e-39
0.05205521 0.066837758 1.2590001 5.5292155e-39
0.047461145 0.07138589 1.2590001 4.9774682e-39
0.052472852 0.070145488 1.2590001 5.1611504e-39
0.03367896 0.076347485 1.2590001 5.6199299e-39
0.042867087 0.075934015 1.2590001 5.710699e-39
0.036184814 0.080068678 1.2590001 5.8950833e-39
0.036184814 0.085030265 1.2590001 5.8936539e-39
0.032529056 0.057924956 1.263 4.9760431e-39
0.038813587 0.057924956 1.263 5.158991e-39
0.041327402 0.057924956 1.263 5.2522642e-39
0.051382653 0.057924956 1.263 5.5313707e-39
0.056410283 0.055436276 1.263 8.3854555e-39
0.02750143 0.061657973 1.263 4.8838376e-39
0.032529056 0.060413633 1.263 5.0678744e-39
0.037556682 0.060413633 1.263 5.2515398e-39
0.041327402 0.060413633 1.263 5.2558459e-39
0.051382653 0.060413633 1.263 5.0686044e-39
0.056410283 0.062902309 1.263 6.1720765e-39
0.02750143 0.066635333 1.263 5.0671387e-39
0.056410283 0.066635333 1.263 6.0802382e-39
0.026244523 0.07036835 1.263 5.4355485e-39
0.052639559 0.07285703 1.263 4.8845635e-39
0.047611933 0.076590046 1.263 5.3433682e-39
0.051382653 0.076590046 1.263 4.9753158e-39
0.028758336 0.082811743 1.263 5.4355499e-39
0.032529056 0.081567407 1.263 5.4355457e-39
0.036299776 0.082811743 1.263 5.8947259e-39
0.042165339 0.081152633 1.263 6.0784011e-39
0.046355028 0.080323063 1.263 5.8943798e-39
0.028758336 0.087789096 1.263 5.4348436e-39
0.032529056 0.086544752 1.263 5.4334017e-39
0.036299776 0.087789096 1.263 5.8003891e-39
0.042165339 0.086129978 1.263 6.1688087e-39
0.046355028 0.085300416 1.263 6.0787725e-39
0.038813587 0.090277776 1.263 5.7996801e-39
0.041491009 0.05315721 1.268 5.7114599e-39
0.067990541 0.05315721 1.268 6.0773712e-39
0.027610304 0.05815427 1.268 5.1597099e-39
0.037284736 0.056488585 1.268 5.1586393e-39
0.041491009 0.05565574 1.268 5.5256253e-39
0.058316112 0.057321429 1.268 6.9099905e-39
0.062943012 0.056905009 1.268 6.4465082e-39
0.068411171 0.056488585 1.268 5.8015046e-39
0.071776189 0.05815427 1.268 6.3575356e-39
0.022983402 0.062318485 1.268 4.975313e-39
0.026348421 0.0606528 1.268 5.0675114e-39
0.058316112 0.061485644 1.268 6.1720779e-39
0.062943012 0.061902061 1.268 6.3561077e-39
0.023824656 0.066899121 1.268 4.9760179e-39
0.059157368 0.06564986 1.268 6.1727968e-39
0.062943012 0.06564986 1.268 6.0813214e-39
0.023824656 0.071896188 1.268 5.4355457e-39
0.026348421 0.073145457 1.268 5.619574e-39
0.056633603 0.071896188 1.268 5.3441053e-39
0.026348421 0.078142516 1.268 5.5273812e-39
0.054109838 0.076893255 1.268 5.5259728e-39
0.027189678 0.081473894 1.268 5.4351897e-39
0.044014778 0.083139576 1.268 6.1698835e-39
0.048221052 0.082306735 1.268 5.6181615e-39
0.052847955 0.081890307 1.268 6.1688171e-39
0.056633603 0.083139576 1.268 1.0490814e-38
0.027189678 0.086470954 1.268 5.4344821e-39
0.044014778 0.088136636 1.268 6.2620833e-39
0.048221052 0.087303802 1.268 5.7107158e-39
0.052847955 0.086887375 1.268 6.6297813e-39
0.056633603 0.088136636 1.268 1.039969e-38
0.028872186 0.090635166 1.268 5.3430109e-39
0.032657832 0.090635166 1.268 5.2497391e-39
0.037284736 0.092300855 1.268 5.4326968e-39
0.042332269 0.091468021 1.268 5.8933092e-39
0.047800425 0.091884434 1.268 5.5259686e-39
0.052847955 0.091884434 1.268 5.1582637e-39
0.056633603 0.091884434 1.268 6.3571376e-39
0.037705362 0.095632225 1.268 5.1575491e-39
0.041491009 0.095632225 1.268 5.5266819e-39
0.049062308 0.095632225 1.268 5.1575421e-39
0.051586073 0.095632225 1.268 4.6054571e-39
0.07200262 0.048312075 1.2720001 8.3854597e-39
0.028963264 0.053324897 1.2720001 5.2512006e-39
0.03149499 0.053324897 1.2720001 5.0675311e-39
0.068205029 0.050818484 1.2720001 7.6439542e-39
0.07200262 0.053324897 1.2720001 6.8131285e-39
0.017570496 0.058337722 1.2720001 5.8925904e-39
0.022211995 0.057502251 1.2720001 5.6174496e-39
0.027697401 0.055831309 1.2720001 5.3430277e-39
0.032760851 0.055831309 1.2720001 5.0675254e-39
0.066939168 0.058337722 1.2720001 5.9866119e-39
0.073268481 0.055831309 1.2720001 6.6330393e-39
0.017570496 0.062097341 1.2720001 5.5266819e-39
0.021368084 0.060844135 1.2720001 5.3422991e-39
0.068205029 0.062097341 1.2720001 6.1717164e-39
0.073268481 0.063350543 1.2720001 5.9919831e-39
0.01799245 0.066692434 1.2720001 5.1607692e-39
0.021368084 0.067110166 1.2720001 4.8845453e-39
0.059343982 0.068363369 1.2720001 5.8047318e-39
0.063141569 0.068363369 1.2720001 5.7132578e-39
0.068205029 0.067110166 1.2720001 5.895847e-39
0.021368084 0.070869781 1.2720001 5.2518845e-39
0.059343982 0.072122991 1.2720001 5.3441067e-39
0.063141569 0.070869781 1.2720001 5.5285022e-39
0.068205029 0.070869781 1.2720001 5.8007717e-39
0.056812253 0.077135816 1.2720001 6.1691815e-39
0.056812253 0.080895431 1.2720001 8.4693638e-39
0.056812253 0.085908256 1.2720001 1.0951422e-38
0.027275449 0.092592023 1.2720001 5.3430151e-39
0.032760851 0.093427494 1.2720001 5.0664324e-39
0.044153623 0.093427494 1.2720001 5.7089194e-39
0.027697401 0.095933907 1.2720001 5.1593525e-39
0.032760851 0.097187117 1.2720001 5.1579134e-39
0.037824307 0.098440319 1.2720001 5.1593427e-39
0.044153623 0.095933907 1.2720001 5.5259616e-39
0.047951214 0.097187117 1.2720001 5.4341247e-39
0.053436618 0.097604856 1.2720001 4.7909231e-39
0.056812253 0.097187117 1.2720001 4.3356903e-39
0.0087436894 0.053534508 1.2770001 5.5252442e-39
0.011285367 0.053534508 1.2770001 5.8940211e-39
0.017639562 0.053534508 1.2770001 6.3535615e-39
0.02145208 0.052276377 1.2770001 6.0773446e-39
0.026535437 0.053534508 1.2770001 5.5267001e-39
0.012556206 0.057308905 1.2770001 5.8933036e-39
0.017639562 0.056050774 1.2770001 6.1688143e-39
0.023993758 0.056050774 1.2770001 5.7096466e-39
0.012556206 0.062341429 1.2770001 5.8021856e-39
0.072285645 0.061083302 1.2770001 6.1745821e-39
0.077368997 0.063599564 1.2770001 5.8097372e-39
0.012556206 0.066115826 1.2770001 5.7128584e-39
0.016368724 0.068632089 1.2770001 5.3451591e-39
0.073132873 0.066954583 1.2770002 5.8972721e-39
0.018910402 0.071148358 1.2770001 5.3448032e-39
0.02145208 0.073664621 1.2770001 5.7110606e-39
0.063389771 0.073664621 1.2770001 5.434866e-39
0.067202285 0.073664621 1.2770001 5.5249037e-39
0.023993758 0.077439018 1.2770001 5.6185006e-39
0.059577253 0.077439018 1.2770001 7.3655568e-39
0.062118929 0.077439018 1.2770001 8.4665052e-39
0.023993758 0.083729677 1.2770001 5.8933008e-39
0.059577253 0.08247155 1.2770001 1.0124185e-38
0.023993758 0.088762209 1.2770001 5.8011122e-39
0.059577253 0.087504074 1.2770001 1.0674116e-38
0.062118929 0.088762209 1.2770001 1.0578696e-38
0.023993758 0.091278471 1.2770001 5.7096382e-39
0.059577253 0.092536598 1.2770001 7.457723e-39
0.054493897 0.10260166 1.2770001 5.5317084e-39
0.057035573 0.10134353 1.2770001 5.2590661e-39
0.0062262951 0.041113537 1.2820001 5.6210439e-39
-0.0027044099 0.046165768 1.2820001 5.3437116e-39
0.0075021097 0.047428828 1.2820001 5.8950987e-39
0.011329555 0.047428828 1.2820001 6.0787739e-39
0.021536073 0.048691887 1.2820001 6.1688255e-39
0.0070768385 0.052060045 1.2820001 5.617437e-39
0.013030641 0.052060045 1.2820001 6.1702436e-39
0.017708629 0.051218003 1.2820001 6.3542804e-39
0.024087703 0.052481063 1.2820001 5.8018423e-39
0.026639333 0.051218003 1.2820001 5.5259855e-39
0.0751203 0.053744119 1.2820001 6.8163543e-39
0.0075021097 0.056270234 1.2820001 5.249379e-39
0.076396115 0.057533294 1.2820001 6.2696391e-39
0.08022356 0.056270234 1.2820001 6.0881163e-39
0.0751203 0.061322469 1.2820001 5.9937753e-39
0.012605369 0.068900816 1.2820001 5.620667e-39
0.0751203 0.068900816 1.2820001 5.9873055e-39
0.017708629 0.072689995 1.2820001 5.4362799e-39
0.071292855 0.072689995 1.2820001 5.89224e-39
0.018984443 0.076479167 1.2820001 5.7107046e-39
0.021536073 0.077742226 1.2820001 5.7096228e-39
0.064913787 0.077742226 1.2820001 8.1909959e-39
0.06746541 0.076479167 1.2820001 6.8116726e-39
0.07001704 0.076479167 1.2820001 6.5372395e-39
0.022386616 0.08237344 1.2820001 5.8922176e-39
0.0632127 0.08237344 1.2820001 1.0490813e-38
0.022386616 0.087425679 1.2820001 6.0766103e-39
0.063637972 0.086583637 1.2820001 9.4791788e-39
0.022811888 0.092898928 1.2820001 5.8014737e-39
0.062362153 0.092898928 1.2820001 8.1909847e-39
0.026639333 0.099214219 1.2820001 5.1586365e-39
0.059810523 0.096688099 1.2820001 4.9788947e-39
0.031742591 0.11942315 1.2820001 1.1683229e-38
0.036845855 0.12194927 1.2820001 1.1408086e-38
-0.0022880277 0.042964529 1.2870001 5.4369946e-39
0.0024082055 0.041273884 1.2870001 5.4380834e-39
-0.0027149578 0.048881792 1.2870001 5.5270224e-39
0.0024082055 0.047613807 1.2870001 5.6195838e-39
0.013935324 0.048881792 1.2870001 6.2628022e-39
0.017350767 0.048036467 1.2870001 6.2624505e-39
0.022900861 0.047613807 1.2870001 6.0769928e-39
0.026743231 0.047613807 1.2870001 4.9742592e-39
0.076267146 0.047191143 1.2870001 1.0774264e-38
-0.0027149578 0.051417761 1.2870001 5.5273854e-39
0.0024082055 0.052685745 1.2870001 5.3426452e-39
0.076694071 0.052685745 1.2870001 6.7245202e-39
0.080536447 0.05395373 1.2870001 6.2696405e-39
-0.0027149578 0.056489699 1.2870001 5.5266763e-39
0.0024082055 0.056489699 1.2870001 5.1582595e-39
0.0075313691 0.059025668 1.2870001 5.4337702e-39
0.077974863 0.059025668 1.2870001 5.9959221e-39
0.08181724 0.057757683 1.2870001 5.8104561e-39
0.0079582995 0.062406957 1.2870001 5.6181573e-39
0.077974863 0.061561637 1.2870001 5.8118924e-39
0.080536447 0.061561637 1.2870001 5.7193352e-39
0.077974863 0.069169544 1.2870001 6.0798501e-39
0.080536447 0.069169544 1.2870001 6.3542734e-39
0.013081464 0.072550833 1.2870001 5.6199537e-39
0.016496906 0.074241482 1.2870001 5.5284756e-39
0.072851703 0.074241482 1.2870001 6.1698947e-39
0.076694071 0.072973497 1.2870001 6.1738338e-39
0.08181724 0.072973497 1.2870001 6.7255558e-39
0.013935324 0.076777451 1.2870001 5.7110634e-39
0.017777696 0.078045435 1.2870001 5.6181503e-39
0.067728542 0.07931342 1.2870001 8.9263945e-39
0.071997844 0.078468099 1.2870001 6.8159718e-39
0.076694071 0.078045435 1.2870001 6.0848667e-39
0.081390314 0.078468099 1.2870001 5.9930214e-39
0.019058486 0.083117373 1.2870001 6.2599141e-39
0.066874683 0.083540037 1.2870001 9.2948015e-39
0.071143985 0.082694709 1.2870001 7.2740731e-39
0.076694071 0.081849389 1.2870001 5.6264151e-39
0.019058486 0.088189311 1.2870001 6.5364982e-39
0.066874683 0.088611975 1.2870001 5.9815518e-39
0.071143985 0.087766647 1.2870001 5.524182e-39
0.076694071 0.086921327 1.2870001 5.0689534e-39
0.019058486 0.093261249 1.2870001 6.2602869e-39
0.021620069 0.094529234 1.2870001 5.9851461e-39
0.065166958 0.091993265 1.2870001 6.2545556e-39
0.024181651 0.098333187 1.2870001 5.1582749e-39
0.062605374 0.097065203 1.2870001 5.9894509e-39
0.027597092 0.10889973 1.2870001 8.0973611e-39
0.028024022 0.113549 1.2870001 1.0765233e-38
0.024181651 0.11862094 1.2870001 1.1223699e-38
0.028024022 0.11862094 1.2870001 1.1407001e-38
0.024181651 0.12242489 1.2870001 1.1408447e-38
0.028450951 0.12327021 1.2870001 1.1499916e-38
0.033147186 0.12369288 1.2870001 1.1407364e-38
0.038270347 0.12496086 1.2870001 1.1774356e-38
0.0446743 0.12369288 1.2870001 1.2142407e-38
0.029304814 0.12749684 1.2870001 1.1869046e-38
0.033147186 0.12749684 1.2870001 1.1592106e-38
0.038270347 0.12749684 1.2870001 1.1682883e-38
0.043393508 0.12749684 1.2870001 1.2049149e-38
0.033147186 0.13130079 1.2870001 1.2332173e-38
0.038270347 0.13130079 1.2870001 1.159285e-38
0.042112719 0.13003281 1.2870001 1.1682173e-38
0.034427974 0.13637273 1.2870001 1.2977899e-38
0.038270347 0.13637273 1.2870001 1.2885723e-38
0.012693862 0.043946017 1.291 5.8040003e-39
0.01783295 0.043946017 1.291 5.8054408e-39
0.021687264 0.043946017 1.291 7.0929314e-39
0.078217208 0.043946017 1.291 1.205781e-38
0.08078675 0.043946017 1.291 8.6595383e-39
-0.0065777106 0.046489865 1.291 5.3422808e-39
0.013978634 0.046489865 1.291 6.1720513e-39
0.01911772 0.046489865 1.291 6.2628162e-39
0.024256807 0.046489865 1.291 5.7082187e-39
0.078217208 0.049033716 1.291 8.4737065e-39
0.081643268 0.047337815 1.2910001 6.7234468e-39
-0.0027233958 0.05412142 1.291 5.4351953e-39
0.078217208 0.051577568 1.291 6.9071164e-39
0.08249978 0.052425519 1.2910001 5.989116e-39
0.087210611 0.05412142 1.291 6.0805942e-39
0.0037004619 0.05920912 1.291 5.4341275e-39
0.083356291 0.05920912 1.291 5.6253501e-39
0.086782359 0.057513218 1.2910001 5.8979924e-39
0.0037004619 0.063024893 1.291 5.5259672e-39
0.0062700049 0.064296819 1.291 5.5263246e-39
0.083356291 0.061752971 1.291 5.6246313e-39
0.0037004619 0.069384523 1.291 5.5263302e-39
0.007554776 0.068112597 1.291 5.6185188e-39
0.0037004619 0.071928374 1.291 5.5263288e-39
0.007554776 0.071928374 1.291 5.5266847e-39
0.011409091 0.074472226 1.291 5.7107102e-39
0.012265606 0.078711979 1.2910001 5.8021758e-39
0.016548177 0.07955993 1.291 5.6185062e-39
0.083356291 0.077016078 1.291 6.6351566e-39
0.012693861 0.083375707 1.291 6.2620665e-39
0.016548177 0.083375707 1.291 6.4446599e-39
0.073078118 0.084647633 1.291 6.1720527e-39
0.076932438 0.084647633 1.291 5.2565676e-39
0.08078675 0.082103781 1.291 5.4412966e-39
0.012693862 0.088463411 1.291 6.5372185e-39
0.016548177 0.088463411 1.291 6.9041989e-39
0.073078118 0.089735329 1.291 5.1575617e-39
0.076932438 0.089735329 1.291 5.0678786e-39
0.08078675 0.087191485 1.291 5.0678716e-39
0.013122119 0.093127131 1.2910001 6.3521196e-39
0.016548177 0.093551107 1.291 6.4446739e-39
0.067082524 0.093975089 1.2910001 4.8802573e-39
0.070508577 0.092279181 1.291 4.3292457e-39
0.018261207 0.098214835 1.2910001 5.4323409e-39
0.021687264 0.09863881 1.291 5.1575547e-39
0.061515182 0.099910736 1.291 5.257634e-39
0.065369494 0.097366884 1.291 5.7132326e-39
0.027682867 0.1041505 1.2910001 4.6976639e-39
0.060230412 0.10372651 1.291 5.4434518e-39
0.065369494 0.10754228 1.291 5.3466038e-39
0.01911772 0.11262999 1.291 1.1499913e-38
0.022972036 0.11135806 1.291 1.1040035e-38
0.065369494 0.11008614 1.291 4.8820468e-39
0.01911772 0.11644576 1.291 1.1224049e-38
0.022543779 0.1160218 1.2910001 1.131625e-38
0.018261207 0.12195744 1.2910001 1.1136165e-38
0.021687264 0.12153347 1.291 1.1133297e-38
0.047382694 0.12280539 1.291 1.1313023e-38
0.022972036 0.12662116 1.291 1.1781163e-38
0.02682635 0.12662116 1.291 1.1869767e-38
0.047382694 0.12662116 1.291 1.2325007e-38
0.024256807 0.13170886 1.291 1.2609836e-38
0.02853938 0.13128489 1.2910001 1.2516922e-38
0.043956637 0.13213284 1.2910001 1.1956959e-38
0.047382694 0.13043694 1.291 1.2416491e-38
0.024256807 0.13679656 1.291 1.3164082e-38
0.031965438 0.13679656 1.291 1.2887138e-38
0.043528378 0.13679656 1.291 1.2328247e-38
-0.0078929327 0.044116218 1.296 5.5270406e-39
-0.0091826804 0.046669919 1.296 5.3419333e-39
0.083679132 0.049223624 1.296 5.6199818e-39
0.086258627 0.047946773 1.296 5.5270701e-39
0.087548375 0.051777326 1.296 5.9876853e-39
0.092707366 0.054331027 1.296 5.9887657e-39
-0.0027339433 0.059438433 1.296 5.5263204e-39
0.0011352989 0.059438433 1.296 5.4341261e-39
0.088838123 0.059438433 1.296 5.8043618e-39
0.092277452 0.057735965 1.296 5.8036499e-39
-0.0027339433 0.061992139 1.296 5.5259658e-39
0.0011352989 0.061992139 1.296 5.4344891e-39
0.087548375 0.061992139 1.296 5.7118046e-39
0.0037147938 0.074760653 1.296 5.4348478e-39
0.0075840359 0.074760653 1.296 5.5263232e-39
0.0037147938 0.078591205 1.296 5.5273952e-39
0.0075840354 0.078591205 1.296 5.6188649e-39
0.086258627 0.079868056 1.296 6.1713212e-39
0.0037147938 0.083698615 1.296 5.8958119e-39
0.0075840354 0.083698615 1.296 6.0787585e-39
0.083679132 0.082421765 1.296 5.5295462e-39
0.086258627 0.082421765 1.296 5.6185132e-39
0.0075840359 0.087529168 1.296 6.3535559e-39
0.083679132 0.087529168 1.296 5.2504636e-39
0.086258627 0.087529168 1.296 5.4341317e-39
0.0080139516 0.090934098 1.296 6.2599295e-39
0.073361158 0.09263657 1.296 5.0664436e-39
0.077230401 0.09263657 1.296 5.0689562e-39
0.082389385 0.090082869 1.296 5.3433809e-39
0.087118462 0.091785334 1.296 5.8043464e-39
0.0088737831 0.097743981 1.296 6.6240471e-39
0.012313111 0.096892744 1.296 6.074825e-39
0.068202168 0.097743981 1.296 5.5277693e-39
0.072071411 0.09646713 1.296 5.3433851e-39
0.076800488 0.096041515 1.296 5.2533474e-39
0.087548375 0.095190279 1.296 5.7132326e-39
0.016612267 0.10029768 1.296 4.9728047e-39
0.023061005 0.10285138 1.296 5.0642856e-39
0.066482507 0.10114892 1.296 5.4402358e-39
0.019191762 0.10795879 1.296 9.7464442e-39
0.023061005 0.10668194 1.296 6.5325732e-39
0.014032773 0.1105125 1.296 1.1222966e-38
0.019191762 0.1105125 1.296 1.1130786e-38
0.068202168 0.1105125 1.296 4.23669e-39
0.016612267 0.1181736 1.296 1.1041453e-38
0.014032773 0.12328101 1.296 1.1230869e-38
0.016612267 0.12072731 1.296 1.1135804e-38
0.051435448 0.12328101 1.296 1.0026617e-38
0.055304691 0.12328101 1.296 1.1412403e-38
0.01833193 0.12668596 1.296 1.1598211e-38
0.051005535 0.12668596 1.296 1.260195e-38
0.055304691 0.12838842 1.296 1.3249816e-38
0.019191762 0.13221897 1.296 1.2519074e-38
0.021771258 0.13221897 1.296 1.2518717e-38
0.026930247 0.13349582 1.296 1.2794945e-38
0.047566209 0.13349582 1.296 1.2323226e-38
0.050145701 0.13094212 1.296 1.2785624e-38
0.055304691 0.13221897 1.296 1.3156909e-38
-0.011807553 0.044286419 1.3010001 5.1593511e-39
-0.0079233833 0.041722864 1.3010001 6.1706108e-39
-0.004039214 0.041722864 1.3010001 5.8043422e-39
0.014086911 0.041722864 1.3010001 4.9771333e-39
0.01797108 0.041722864 1.3010001 5.0729176e-39
0.084001966 0.044286419 1.3010001 6.0888548e-39
0.086591415 0.044286419 1.3010001 6.2689315e-39
-0.011807553 0.046849973 1.3010001 5.2504664e-39
-0.0079233833 0.049413528 1.3010001 5.709983e-39
0.089180864 0.048131749 1.3010001 5.6189056e-39
0.093065023 0.048131749 1.3010001 5.5277875e-39
0.098675504 0.047704495 1.3010001 5.6206922e-39
-0.0066286605 0.053258859 1.3010001 5.7110564e-39
0.093065031 0.051977083 1.3010001 5.8054548e-39
0.098243922 0.053258859 1.3010001 5.8965672e-39
0.1021281 0.054540638 1.3010001 5.8947624e-39
-0.0066286605 0.057104193 1.3010001 5.7114235e-39
0.094359756 0.059667751 1.3010001 5.7107355e-39
-0.0014497676 0.064794853 1.3010001 5.3419389e-39
0.0011396789 0.064794853 1.3010001 5.3422977e-39
0.082707241 0.064794853 1.3010001 5.8983371e-39
0.08788614 0.064794853 1.3010001 5.8915184e-39
0.091770306 0.063513078 1.3010001 6.2595834e-39
-0.0014497676 0.068640187 1.3010001 5.4337772e-39
0.0020028278 0.068212926 1.3010001 5.4337772e-39
0.08788614 0.068640187 1.3010001 6.5307641e-39
0.091770306 0.067358412 1.3010001 7.2701214e-39
-0.0014497676 0.072485521 1.3010001 5.7096396e-39
0.0011396789 0.072485521 1.3010001 5.5263274e-39
0.08788614 0.077612631 1.3010001 7.366612e-39
0.092633456 0.076758116 1.3010001 8.5629762e-39
0.0011396789 0.08017619 1.3010001 5.52847e-39
0.089180864 0.081457965 1.3010001 6.0773277e-39
0.092633456 0.081030712 1.3010001 6.6286938e-39
0.0020028278 0.087012336 1.3010001 5.8036177e-39
0.082707241 0.085303299 1.3010001 5.1604161e-39
0.088317715 0.086157821 1.3010001 5.5270364e-39
0.091770306 0.08786685 1.3010001 5.807561e-39
0.0037291255 0.091712184 1.3010001 5.8922232e-39
0.006318572 0.09299396 1.3010001 5.9826252e-39
0.082707241 0.09299396 1.3010001 5.4362926e-39
0.089180864 0.090430409 1.3010001 5.9894481e-39
0.0076132952 0.096839294 1.3010001 6.4410908e-39
0.078823075 0.098121077 1.3010001 5.3448284e-39
0.082707241 0.096839294 1.3010001 5.4362982e-39
0.08788614 0.098121077 1.3010001 5.5284868e-39
0.014086911 0.10196641 1.3010001 6.3514091e-39
0.019265804 0.10324819 1.3010001 5.8886513e-39
0.063286394 0.10324819 1.3010001 5.4430987e-39
0.068465292 0.10324819 1.3010001 5.5320741e-39
0.072349459 0.10196641 1.3010001 5.5288511e-39
0.07752835 0.1019664 1.3010001 5.4359422e-39
0.012792189 0.1083753 1.3010001 1.1315168e-38
0.016676357 0.1083753 1.3010001 1.1404497e-38
0.063286394 0.10709351 1.3010001 5.6264109e-39
0.067602143 0.10666626 1.3010001 5.3466052e-39
0.072349459 0.10709351 1.3010001 4.9738893e-39
0.07752835 0.10709352 1.3010001 5.4337884e-39
0.012792189 0.11222063 1.3010001 1.0947103e-38
0.016676357 0.11222063 1.3010001 1.1314805e-38
0.068465292 0.11350241 1.3010001 5.8865059e-39
0.071917884 0.11179337 1.3010001 4.8802615e-39
0.07752835 0.11093885 1.3010001 8.2860642e-39
0.014086911 0.11734774 1.3010001 1.0765225e-38
0.016676357 0.11606596 1.3010001 1.1131851e-38
0.065875843 0.11606596 1.3010001 9.2912198e-39
0.071054734 0.11734774 1.3010001 1.0859255e-38
0.014086911 0.12119307 1.3010001 1.0953563e-38
0.058107503 0.12375662 1.3010001 1.2972519e-38
0.071054734 0.12119307 1.3010001 1.1500304e-38
0.014086911 0.12760195 1.3010001 1.1875151e-38
0.016676357 0.12888373 1.3010001 1.1874791e-38
0.052928608 0.12888373 1.3010001 1.3339141e-38
0.057244357 0.12717471 1.3010001 1.2973594e-38
0.060696948 0.12888373 1.3010001 1.3063276e-38
0.058107503 0.13272907 1.3010001 1.3340942e-38
0.060696948 0.13272907 1.3010001 1.3340944e-38
0.014141051 0.029016174 1.3060001 1.2704232e-38
0.016740449 0.029016174 1.3060001 1.2518772e-38
0.014141051 0.034162991 1.3060001 7.6443045e-39
0.016740449 0.034162991 1.3060001 8.0177506e-39
-0.0079538357 0.039309803 1.3060001 6.537594e-39
-0.0023218056 0.038451999 1.3060001 5.7125123e-39
0.0011440589 0.038023099 1.3060001 5.2540607e-39
0.0076425551 0.039309803 1.3060001 5.2526356e-39
0.012841352 0.038023099 1.3060001 5.3441207e-39
0.018040149 0.039309803 1.3060001 5.0768693e-39
0.047933228 0.039309803 1.3060001 8.5677042e-39
0.051832326 0.039309803 1.3060001 8.1117735e-39
-0.013585865 0.042741016 1.3060001 6.1684654e-39
0.023238946 0.041883212 1.3060001 7.5574997e-39
0.079126008 0.041883212 1.3060001 9.302028e-39
0.083025098 0.041883212 1.3060001 8.3000856e-39
0.088223904 0.043169916 1.3060001 7.3781251e-39
0.093422696 0.043169916 1.3060001 7.8333509e-39
0.098621488 0.043169916 1.3060001 5.4366583e-39
0.10252059 0.043169916 1.3060001 4.8838474e-39
0.10511999 0.043169916 1.3060001 5.5270504e-39
-0.013585865 0.048745632 1.3060001 6.3532126e-39
0.097321793 0.049603436 1.3060001 5.7143298e-39
0.10252059 0.048316732 1.3060001 5.8958316e-39
0.10511999 0.048316732 1.3060001 6.8156102e-39
-0.0092535345 0.053463545 1.3060001 5.8036205e-39
0.10252059 0.052176841 1.3060001 6.0798683e-39
0.10511999 0.053463545 1.3060001 6.5383115e-39
-0.0079538357 0.058610361 1.3060001 5.7114291e-39
0.098621495 0.058610365 1.3060001 5.4348702e-39
0.10252059 0.058610361 1.3060001 5.6170993e-39
0.10511999 0.057323657 1.3060001 5.89224e-39
-0.0066541359 0.062470473 1.3060001 5.526326e-39
0.094722398 0.062470473 1.3060001 6.1688269e-39
0.097321793 0.062470473 1.3060001 6.2610198e-39
-0.0040547377 0.066330582 1.3060001 5.2497461e-39
0.094722398 0.066330582 1.3060001 7.641408e-39
-0.0066541359 0.071477398 1.3060001 6.0762628e-39
-0.0040547377 0.071477398 1.3060001 5.7092809e-39
0.084324799 0.070190698 1.3060001 6.5350675e-39
0.088223904 0.072764099 1.3060001 7.3651771e-39
0.093422696 0.071477398 1.3060001 8.6555362e-39
-0.0014553394 0.075337507 1.3060001 5.7103529e-39
0.088223904 0.075337507 1.3060001 7.9183425e-39
0.094722398 0.075337507 1.3060001 9.3905732e-39
0.092122994 0.08563114 1.3060001 5.8046939e-39
0.0011440589 0.090777956 1.3060001 5.5259588e-39
0.092122994 0.090777956 1.3060001 5.9933886e-39
0.0037434571 0.097211473 1.3060001 6.8120103e-39
0.0063428557 0.095924772 1.3060001 5.6149259e-39
0.0037434571 0.10235828 1.3060001 9.9383632e-39
0.0076425551 0.10235828 1.3060001 9.289059e-39
0.011541652 0.10235828 1.3060001 7.0860889e-39
0.016740449 0.10364499 1.3060001 6.7158868e-39
0.082591869 0.10192939 1.3060001 5.251551e-39
0.088223904 0.10107158 1.3060001 5.3423033e-39
0.092122994 0.10107158 1.3060001 5.8004087e-39
0.0028769912 0.107934 1.3060001 1.0396465e-38
0.0076425551 0.1075051 1.3060001 1.0488657e-38
0.012841351 0.1062184 1.3060001 1.0396466e-38
0.018040149 0.1062184 1.3060001 9.1028853e-39
0.081725404 0.1075051 1.3060001 4.8816979e-39
0.0076425551 0.11265192 1.3060001 1.048865e-38
0.011541652 0.11393862 1.3060001 1.0763074e-38
0.073927209 0.11393862 1.3060001 6.999291e-39
0.077826306 0.11393862 1.3060001 1.0952512e-38
0.0089422539 0.11779873 1.3060001 1.058299e-38
0.011541652 0.11779873 1.3060001 1.0490077e-38
0.067861944 0.11822765 1.3060001 1.0212083e-38
0.073927209 0.11779873 1.3060001 1.2054908e-38
0.076526605 0.11908544 1.3060001 1.3987398e-38
0.011541652 0.12423225 1.3060001 1.1230868e-38
0.062663153 0.12337445 1.3060001 1.3613567e-38
0.067428708 0.12294555 1.3060001 1.2418639e-38
0.073060751 0.12337445 1.3060001 1.1686483e-38
0.062663153 0.12766346 1.3060001 1.2971081e-38
0.067428708 0.12809236 1.3060001 1.2879973e-38
0.072627515 0.12809236 1.3060001 1.2881407e-38
0.01419519 0.022669114 1.3110001 8.4733463e-39
0.016804539 0.023960743 1.3110001 8.8410499e-39
0.012890515 0.027835634 1.3110001 1.1875922e-38
0.018544106 0.027405089 1.3110001 9.6697231e-39
0.023327913 0.027835634 1.3110001 7.0976174e-39
0.028111724 0.028266177 1.3110001 6.822471e-39
0.04550739 0.029127263 1.3110001 1.2890431e-38
0.0089764893 0.034293782 1.3110001 6.7248664e-39
0.012890515 0.033002153 1.3110001 9.3020042e-39
0.018109214 0.03171052 1.3110001 1.0498029e-38
0.023327913 0.033002153 1.3110001 7.1944765e-39
0.028111724 0.03257161 1.3110001 6.917175e-39
0.046812065 0.033002153 1.3110001 9.7644425e-39
-0.013202986 0.039460301 1.3110001 7.2712102e-39
-0.0079842862 0.036877044 1.3110001 6.7205406e-39
-0.0040702615 0.036877044 1.3110001 5.9865769e-39
0.0037577888 0.039460301 1.3110001 5.2544222e-39
0.0076718144 0.036877044 1.3110001 4.6094298e-39
0.018109214 0.036877044 1.3110001 6.1832e-39
0.023327913 0.038168672 1.3110001 8.1171377e-39
0.028546615 0.038168672 1.3110001 7.3824509e-39
0.048116744 0.036877044 1.3110001 6.9143093e-39
0.050726093 0.036877044 1.3110001 7.8373376e-39
0.055944793 0.039460301 1.3110001 7.8341328e-39
0.068991542 0.039460301 1.3110001 7.3691582e-39
0.07290557 0.039460301 1.3110001 7.921962e-39
0.079428941 0.039460301 1.3110001 7.0047015e-39
0.083342969 0.039460301 1.3110001 8.2100395e-39
0.088561669 0.039460301 1.3110001 9.3142011e-39
0.09247569 0.039460301 1.3110001 9.6779796e-39
0.096389711 0.039460301 1.3110001 8.0155982e-39
0.10160843 0.039460301 1.3110001 4.9818164e-39
0.10682712 0.039460301 1.3110001 5.9909307e-39
-0.017117012 0.043335192 1.3110001 9.0178783e-39
0.08986634 0.042043563 1.3110001 8.761756e-39
0.1081318 0.043335192 1.3110001 7.7336107e-39
0.11204582 0.043335192 1.3110001 1.0122767e-38
-0.017117012 0.048501711 1.3110001 9.2051394e-39
0.1081318 0.048501711 1.3110001 9.8497591e-39
0.11204582 0.048501711 1.3110001 1.1318767e-38
-0.017117012 0.052376602 1.3110001 1.0217482e-38
-0.013202986 0.053668231 1.3110001 6.6312302e-39
0.1081318 0.053668231 1.3110001 8.4682778e-39
0.11204582 0.053668231 1.3110001 8.3767927e-39
-0.011898311 0.057543121 1.3110001 5.6213957e-39
0.1081318 0.057543121 1.3110001 6.4428859e-39
0.11074115 0.057543121 1.3110001 6.4450355e-39
-0.0092889611 0.061418008 1.3110001 5.7107172e-39
0.10160843 0.062709637 1.3110001 6.1673864e-39
0.10682712 0.060126379 1.3110001 5.8014779e-39
0.11161093 0.060987465 1.3110001 5.7157395e-39
-0.0066796113 0.066584527 1.3110001 5.341583e-39
0.09769439 0.066584527 1.3110001 8.4700771e-39
0.10160842 0.066584527 1.3110001 8.1909917e-39
0.10552245 0.065292902 1.3110001 6.356074e-39
-0.0092889611 0.070459425 1.3110001 6.3510546e-39
0.09769439 0.071751058 1.3110001 9.297663e-39
0.10030375 0.071751058 1.3110001 9.1111347e-39
-0.0066796113 0.075625941 1.3110001 6.5361535e-39
-0.0032004784 0.077348113 1.3110001 5.8940211e-39
0.09769439 0.075625941 1.3110001 9.0217963e-39
0.10030375 0.075625941 1.3110001 8.4664898e-39
-0.0066796113 0.080792464 1.3110001 6.4446795e-39
-0.0023306948 0.082514636 1.3110001 5.803259e-39
-0.0014609111 0.087250605 1.3110001 5.7114207e-39
-0.0014609111 0.092417136 1.3110001 5.7081963e-39
0.0011484389 0.093708761 1.3110001 5.9829839e-39
-0.0014609111 0.097583652 1.3110001 8.469354e-39
0.0011484389 0.097583652 1.3110001 7.4566524e-39
0.09247569 0.098875277 1.3110001 5.7135941e-39
-0.0014609111 0.10275017 1.3110001 1.0031278e-38
0.0011484389 0.10275017 1.3110001 9.9387234e-39
0.084647641 0.1040418 1.3110001 4.6069004e-39
0.088561669 0.1040418 1.3110001 5.9833539e-39
-0.0014609111 0.10791668 1.3110001 1.0488664e-38
0.0011484389 0.10662506 1.3110001 1.0488304e-38
0.084647641 0.10791668 1.3110001 4.6973066e-39
0.088126779 0.10748614 1.3110001 7.6392655e-39
0.0024531139 0.11308321 1.3110001 1.0122385e-38
0.083342969 0.11308321 1.3110001 1.1870509e-38
0.0063671391 0.11824973 1.3110001 1.067626e-38
0.07855916 0.11781918 1.3110001 1.4261097e-38
0.082038291 0.11824973 1.3110001 1.4718105e-38
0.0081067067 0.12384679 1.3110001 1.1230147e-38
0.01158584 0.12212462 1.3110001 1.0769892e-38
0.07812427 0.12341624 1.3110001 1.3709725e-38
0.07812427 0.12858278 1.3110001 1.3433129e-38
0.082038291 0.12858278 1.3110001 1.3617513e-38
0.011630027 0.024052126 1.3160001 9.8501641e-39
0.019487932 0.024052126 1.3160001 8.3833101e-39
0.023416884 0.024052126 1.3160001 7.8326587e-39
0.0090107247 0.029238351 1.3160001 1.2703522e-38
0.011630027 0.026645238 1.3160001 1.1690821e-38
0.02996514 0.026645238 1.3160001 7.1901717e-39
0.03258444 0.029238351 1.3160001 6.0874255e-39
0.03520374 0.029238351 1.3160001 9.3952956e-39
0.047427148 0.027509607 1.3160002 1.2706794e-38
-0.014562991 0.034424573 1.3160001 8.1913616e-39
-0.0067050867 0.034424573 1.3160001 6.4442914e-39
-0.0027761338 0.034424573 1.3160001 5.342655e-39
0.0024624697 0.034424573 1.3160001 5.345906e-39
0.0077010738 0.033128016 1.3160001 8.7502737e-39
0.011630027 0.031831462 1.3160001 1.1141943e-38
0.019487932 0.034424573 1.3160001 7.9316604e-39
0.02996514 0.034424573 1.3160001 7.7505075e-39
0.03258444 0.033128016 1.3160001 7.1933961e-39
0.050919551 0.033128016 1.3160001 9.3041916e-39
0.096757337 0.034424573 1.3160001 7.6511485e-39
-0.030278802 0.039610799 1.3160001 1.2430515e-38
-0.02634985 0.039610799 1.3160001 1.2246483e-38
-0.017182294 0.039610799 1.3160001 1.0211384e-38
-0.01325334 0.037017688 1.3160001 7.4559588e-39
0.0037721207 0.037017688 1.3160001 4.8849335e-39
0.03258444 0.037017688 1.3160001 8.4830405e-39
0.058777459 0.039610799 1.3160001 7.6518926e-39
0.092828378 0.037017688 1.3160001 7.5611122e-39
0.096757337 0.037017688 1.3160001 6.822464e-39
0.10199594 0.037017688 1.3160001 7.0990691e-39
0.11247315 0.039610799 1.3160001 8.1931693e-39
-0.019801596 0.042203911 1.3160001 1.2059576e-38
-0.019801596 0.048686691 1.3160001 1.1510707e-38
0.1164021 0.048686691 1.3160001 9.478834e-39
-0.019801596 0.052576359 1.3160001 1.2428698e-38
-0.017182294 0.056466028 1.3160001 9.5742779e-39
-0.014562991 0.057762582 1.3160001 6.0812976e-39
0.11378279 0.057762582 1.3160001 5.2511754e-39
-0.01194369 0.061652251 1.3160001 5.6188887e-39
0.10723454 0.062948808 1.3160001 5.8039863e-39
-0.0093243876 0.066838473 1.3160001 5.4330612e-39
0.10854419 0.065541916 1.3160001 5.9019202e-39
0.1111635 0.065541916 1.3160001 5.536732e-39
-0.01194369 0.072024703 1.3160001 7.6367501e-39
-0.0093243876 0.073321253 1.3160001 6.8102293e-39
0.10330559 0.072024703 1.3160001 8.0980828e-39
-0.01194369 0.075914368 1.3160001 7.9126153e-39
-0.0093243876 0.075914368 1.3160001 7.0864518e-39
0.10330559 0.075914368 1.3160001 7.4520015e-39
-0.01194369 0.081100591 1.3160001 7.7285912e-39
-0.0093243876 0.081100591 1.3160001 6.9949793e-39
-0.0040857848 0.081100591 1.3160001 5.9862153e-39
-0.0040857848 0.087583371 1.3160001 5.6177943e-39
-0.0040857848 0.091473036 1.3160001 5.2490174e-39
-0.0040857848 0.099252373 1.3160001 1.0029833e-38
-0.0040857848 0.10314204 1.3160001 1.0213511e-38
-0.0040857848 0.10832827 1.3160001 1.048866e-38
-0.0014664829 0.11351449 1.3160001 1.030749e-38
0.087589778 0.11351449 1.3160001 1.3250558e-38
0.00289902 0.11826853 1.3160002 1.0585501e-38
0.084970474 0.11870071 1.3160001 1.4534799e-38
0.0037721207 0.12259038 1.3160001 1.1230509e-38
0.0063914228 0.12259038 1.3160001 1.1137953e-38
0.083660826 0.12259038 1.3160001 1.4166372e-38
0.082351178 0.12518349 1.3160001 1.3983419e-38
0.0090449592 0.02414351 1.3210001 8.8417715e-39
0.037966751 0.02414351 1.3210001 8.1974629e-39
0.040596001 0.02414351 1.3210001 8.8417239e-39
0.047169134 0.02414351 1.3210001 1.1145573e-38
0.051113017 0.02414351 1.3210001 1.2350579e-38
-0.0067305616 0.029349439 1.3210001 5.896926e-39
-0.0027866813 0.029349439 1.3210001 4.9800186e-39
0.0011571989 0.029349439 1.3210001 5.4417072e-39
0.0077303327 0.028047957 1.3210001 1.1416034e-38
0.032708243 0.026746474 1.3210001 7.1890927e-39
0.036652125 0.026746474 1.3210001 9.1183486e-39
0.042348839 0.02761413 1.3210001 1.1050479e-38
0.052427642 0.028047957 1.3210001 1.2172352e-38
-0.017247576 0.034555368 1.3210001 1.0307883e-38
-0.013303696 0.033253886 1.3210001 8.0998877e-39
-0.0080451891 0.033253886 1.3210001 6.5368626e-39
-0.0041013081 0.031952403 1.3210001 4.6076123e-39
0.0011571989 0.031952403 1.3210001 4.796335e-39
0.0064157061 0.031952403 1.3210001 1.0957558e-38
0.053742271 0.033253886 1.3210001 8.9339868e-39
0.05768615 0.033253886 1.3210001 9.586542e-39
0.097124957 0.031952403 1.3210001 1.0967672e-38
0.12473212 0.034555368 1.3210001 7.1833124e-39
0.12736137 0.034555368 1.3210001 7.1851172e-39
-0.018562203 0.038459815 1.3210001 1.1136558e-38
0.053742271 0.037158333 1.3210001 8.6624333e-39
0.05768615 0.037158333 1.3210001 7.5604186e-39
0.062944658 0.038459815 1.3210001 6.7324502e-39
0.06776496 0.03802599 1.3210001 5.8079688e-39
0.073461674 0.037158333 1.3210001 5.9941593e-39
0.077405557 0.039761294 1.3210001 7.4617097e-39
0.082664065 0.037158333 1.3210001 6.3665417e-39
0.085293315 0.037158333 1.3210001 7.4757199e-39
0.090551823 0.037158333 1.3210001 8.3937203e-39
0.11421511 0.037158333 1.3210001 6.8120397e-39
0.11815899 0.039761294 1.3210001 7.6367571e-39
0.12473212 0.039761294 1.3210001 5.9934138e-39
-0.026011756 0.043231916 1.3210001 1.206245e-38
-0.022506084 0.044967223 1.3210001 1.1602908e-38
-0.01987683 0.044967223 1.3210001 1.1141218e-38
0.11815899 0.043665741 1.3210001 8.8345394e-39
-0.022506084 0.047570188 1.3210001 1.1602903e-38
0.11947361 0.047570188 1.3210001 7.0882427e-39
-0.022506084 0.050173152 1.3210001 1.2154267e-38
0.11815899 0.051474635 1.3210001 6.6272743e-39
-0.01987683 0.056680564 1.3210001 1.2152483e-38
0.11772078 0.056246739 1.3210001 4.881688e-39
-0.017247576 0.061886489 1.3210001 8.4693849e-39
-0.014618323 0.061886489 1.3210001 5.9848e-39
0.11684436 0.063187972 1.3210001 5.533872e-39
-0.013303696 0.067092419 1.3210001 6.5350899e-39
0.10764197 0.068393901 1.3210001 6.5440512e-39
0.11158586 0.068393901 1.3210001 5.8118798e-39
0.11684436 0.067092419 1.3210001 5.5327944e-39
-0.014618323 0.070996866 1.3210001 8.556903e-39
0.10720377 0.072732173 1.3210001 7.0911153e-39
0.11290048 0.073599823 1.3210001 6.6330141e-39
0.11684436 0.073599823 1.3210001 6.4454012e-39
-0.0080451891 0.078805752 1.3210001 6.8116614e-39
0.098439582 0.078805752 1.3210001 8.1924042e-39
0.10106884 0.078805752 1.3210001 7.7285744e-39
0.10632735 0.076202787 1.3210001 6.7176749e-39
-0.0080451891 0.084011681 1.3210001 6.2602939e-39
0.098439582 0.081408717 1.3210001 7.0857175e-39
0.10106884 0.081408717 1.3210001 6.9928128e-39
-0.0067305616 0.089217611 1.3210001 5.6170783e-39
0.098439582 0.086614646 1.3210001 6.2663797e-39
0.10106884 0.086614646 1.3210001 6.6315707e-39
-0.0067305616 0.091820575 1.3210001 5.9840615e-39
-0.0041013081 0.09442354 1.3210001 6.6261953e-39
-0.0041013081 0.097026505 1.3210001 9.0171426e-39
-0.0067305616 0.1048354 1.3210001 1.0396825e-38
0.093181081 0.1048354 1.3210001 7.7296716e-39
-0.0080451891 0.10743836 1.3210001 1.0489017e-38
-0.0067305616 0.11004133 1.3210001 1.0673402e-38
-0.0041013081 0.11264429 1.3210001 1.0581922e-38
0.090551823 0.11134281 1.3210001 1.2237846e-38
-0.0027866813 0.11654874 1.3210001 1.0769173e-38
0.087922573 0.11785022 1.3210001 1.4534448e-38
-0.0014720546 0.12045318 1.3210001 1.1138671e-38
0.0011571989 0.12175466 1.3210001 1.1046478e-38
0.087922573 0.12305614 1.3210001 1.3797954e-38
0.016996812 0.01900926 1.3260001 7.5603766e-39
0.038110454 0.01900926 1.3260001 7.0032329e-39
0.040749662 0.01900926 1.3260001 7.2801715e-39
0.046907805 0.018138323 1.3260001 8.2943655e-39
0.051306482 0.01900926 1.3260001 8.4798301e-39
0.0064399894 0.024234893 1.3260001 7.9244956e-39
0.027553633 0.024234893 1.3260001 7.2827233e-39
0.031512443 0.024234893 1.3260001 7.5582284e-39
0.036350988 0.022493016 1.3260001 7.8308468e-39
0.042509131 0.022493016 1.3260001 8.659506e-39
0.047347672 0.021622077 1.3260001 9.3999746e-39
0.053065952 0.022493016 1.3260001 1.0227577e-38
0.057904497 0.024234893 1.3260001 1.3272554e-38
0.061863303 0.024234893 1.3260001 1.6507344e-38
-0.01335405 0.029460527 1.3260001 8.00699e-39
-0.0093952427 0.029460527 1.3260001 6.814925e-39
0.0038007842 0.02815412 1.3260001 8.4765777e-39
0.0064399894 0.026847711 1.3260001 9.6704434e-39
0.057904497 0.02815412 1.3260001 1.429715e-38
0.062743038 0.02858959 1.3260001 1.6321135e-38
0.067141712 0.029460527 1.3260001 1.6137099e-38
0.097492576 0.029460527 1.3260001 1.4200641e-38
-0.012034448 0.032073341 1.3260001 7.8258231e-39
-0.0093952427 0.032073341 1.3260001 7.1811628e-39
0.063182905 0.033379748 1.3260001 1.0053285e-38
0.068461314 0.033379748 1.3260001 9.3214696e-39
0.072420128 0.034686159 1.3260001 7.3861055e-39
0.075059332 0.034686159 1.3260001 8.4005993e-39
0.082097217 0.03381522 1.3260001 9.9643167e-39
0.086935751 0.034686159 1.3260001 9.1298799e-39
0.092654034 0.03381522 1.3260001 9.6815949e-39
0.10145138 0.033379748 1.3260001 9.6726266e-39
0.12256502 0.034686159 1.3260001 6.5404681e-39
-0.022591269 0.039911792 1.3260001 1.224684e-38
-0.019952063 0.037298977 1.3260001 1.196918e-38
0.077698536 0.037298977 1.3260001 5.6235873e-39
0.08033774 0.037298977 1.3260001 5.169086e-39
0.088255353 0.037298977 1.3260001 8.1149671e-39
0.11860622 0.037298977 1.3260001 5.7071467e-39
0.12256502 0.038605385 1.3260001 5.3433879e-39
0.1269637 0.038169917 1.3260001 6.3607544e-39
-0.022591269 0.04252461 1.3260001 1.2062807e-38
0.12256502 0.04252461 1.3260001 5.528477e-39
0.12652384 0.04252461 1.3260001 5.9037209e-39
-0.030508885 0.047750242 1.3260001 1.2521989e-38
-0.026550077 0.046443835 1.3260001 1.2153925e-38
0.12256502 0.046443835 1.3260001 5.1611364e-39
0.12520424 0.046443835 1.3260001 5.4420323e-39
-0.030508885 0.050363056 1.3260001 1.2705303e-38
-0.026110208 0.051233999 1.3260001 1.242907e-38
-0.022591269 0.052975874 1.3260001 1.2429409e-38
0.11992582 0.052975874 1.3260001 5.6160133e-39
0.12256502 0.051669464 1.3260001 4.5157866e-39
0.12520424 0.051669464 1.3260001 5.0693135e-39
-0.025230473 0.0568951 1.3260001 1.2152851e-38
-0.022591269 0.0568951 1.3260001 1.21532e-38
0.11992582 0.058201507 1.3260001 5.2504776e-39
0.12256502 0.0568951 1.3260001 5.4345087e-39
0.12652384 0.0568951 1.3260001 5.7114529e-39
-0.022591269 0.063427143 1.3260001 1.0866433e-38
-0.019952063 0.062120736 1.3260001 1.0590211e-38
0.11464741 0.063427143 1.3260001 5.5352999e-39
0.11904608 0.061685264 1.3260001 5.5302888e-39
0.12256502 0.062120736 1.3260001 5.9883971e-39
0.12784344 0.060814325 1.3260001 5.8965602e-39
-0.030508885 0.066039957 1.3260001 1.1600051e-38
-0.017312858 0.066039957 1.3260001 8.7448871e-39
0.11464741 0.067346364 1.3260001 5.5360174e-39
0.11992582 0.067346364 1.3260001 5.7135997e-39
0.12256502 0.067346364 1.3260001 5.8032828e-39
0.12652384 0.067346364 1.3260001 5.7103683e-39
-0.017312858 0.073878407 1.3260001 1.0490468e-38
-0.014673653 0.073878407 1.3260001 9.0139252e-39
0.109369 0.071265593 1.3260001 6.7284369e-39
0.11332781 0.071265593 1.3260001 6.2689049e-39
0.11904608 0.072136536 1.3260001 5.9865867e-39
0.12256502 0.071265593 1.3260001 5.709648e-39
0.12652384 0.071265593 1.3260001 5.6188859e-39
-0.013793918 0.0782331 1.3260001 8.3714369e-39
0.10409059 0.079104036 1.3260001 7.0839407e-39
0.10848927 0.0782331 1.3260001 6.9031382e-39
0.11332781 0.077797629 1.3260001 7.2722724e-39
0.11860622 0.077797629 1.3260001 6.9960512e-39
-0.013793918 0.083458737 1.3260001 7.3598171e-39
0.10321085 0.083458737 1.3260001 6.8105782e-39
0.10760953 0.082587801 1.3260001 7.2715507e-39
0.11332781 0.083023265 1.3260001 8.2849642e-39
0.11860622 0.083023265 1.3260001 7.9158341e-39
-0.012034448 0.089555308 1.3260001 5.7989682e-39
-0.0085155079 0.08781343 1.3260001 5.6167265e-39
0.10321085 0.088684373 1.3260001 6.9992728e-39
0.10760953 0.08781343 1.3260001 8.0091004e-39
0.11332781 0.088248901 1.3260001 8.100933e-39
0.11816635 0.08781343 1.3260001 7.1775614e-39
-0.01335405 0.094780937 1.3260001 1.0213147e-38
-0.008515507 0.093910001 1.3260001 7.5452622e-39
0.10409059 0.092168123 1.3260001 6.9070842e-39
0.10672979 0.092168123 1.3260001 7.27335e-39
0.11332781 0.092168123 1.3260001 6.8098635e-39
0.11728662 0.092168123 1.3260001 5.7028209e-39
-0.01335405 0.097393751 1.3260001 1.0765592e-38
-0.0080756396 0.097393751 1.3260001 1.011952e-38
-0.012034448 0.10131298 1.3260001 1.0581563e-38
-0.0080756396 0.10131298 1.3260001 1.0581562e-38
-0.012034448 0.10784502 1.3260001 1.0673765e-38
-0.0093952427 0.1052322 1.3260001 1.0396465e-38
0.093533769 0.10784502 1.3260001 1.095108e-38
0.097052716 0.10610314 1.3260001 1.0028066e-38
-0.0080756396 0.11176424 1.3260001 1.0857789e-38
0.093533769 0.11176424 1.3260001 1.343349e-38
-0.0067560375 0.11698988 1.3260001 1.1136157e-38
-0.0041168318 0.11829629 1.3260001 1.1045397e-38
0.091774307 0.11655441 1.3260001 1.4444398e-38
0.088255353 0.1209091 1.3260001 1.4349331e-38
0.092214167 0.12221551 1.3260001 1.3798671e-38
0.040903319 -0.049108446 1.3310001 1.4015131e-38
0.022359215 -0.030749766 1.3310001 1.39964e-38
0.026332952 -0.0320611 1.3310001 1.4178624e-38
0.031631269 -0.0320611 1.3310001 1.3534706e-38
0.075342357 -0.0320611 1.3310001 1.6597362e-38
0.081965245 -0.0320611 1.3310001 1.8533114e-38
0.018827006 -0.026378652 1.3310001 1.3720522e-38
0.022359215 -0.026815765 1.3310001 1.362833e-38
0.026332952 -0.026815763 1.3310001 1.3258839e-38
0.031631269 -0.026815763 1.3310001 1.5202509e-38
0.083289824 -0.025504429 1.3310001 1.6876111e-38
0.014411745 -0.021570425 1.3310001 1.3810199e-38
0.018385481 -0.021570425 1.3310001 1.445809e-38
0.022359215 -0.021570425 1.3310001 1.5107057e-38
0.026332952 -0.021570425 1.3310001 1.5110678e-38
0.031631269 -0.021570425 1.3310001 1.585368e-38
0.019710058 -0.017636422 1.3310001 1.6218453e-38
0.022359215 -0.017636422 1.3310001 1.6220628e-38
0.026332952 -0.016325088 1.3310001 1.5761833e-38
0.031189743 -0.016762201 1.3310001 1.5578172e-38
0.027657529 0.013835602 1.3310001 6.3539314e-39
0.031631269 0.012524268 1.3310001 7.9212726e-39
0.036929581 0.012524268 1.3310001 9.6837767e-39
0.041786369 0.012961379 1.3310001 1.0610796e-38
0.047526211 0.013835602 1.3310001 1.097886e-38
0.051499944 0.013835602 1.3310001 1.2453244e-38
0.018385481 0.017769605 1.3310001 7.5610912e-39
0.022359215 0.019080939 1.3310001 7.465667e-39
0.026332952 0.017769605 1.3310001 6.7259524e-39
0.031631269 0.017769605 1.3310001 6.0813102e-39
0.036488056 0.017332494 1.3310001 5.8079491e-39
0.042669423 0.017332494 1.3310001 6.639879e-39
0.04885079 0.016458271 1.3310001 9.3092461e-39
0.052824523 0.017769605 1.3310001 8.8525699e-39
0.056798261 0.019080939 1.3310001 6.1792876e-39
0.019710058 0.021703608 1.3310001 7.8312195e-39
0.022359215 0.021703608 1.3310001 7.831937e-39
0.026332952 0.021703608 1.3310001 7.3731182e-39
0.031631269 0.021703608 1.3310001 7.3738343e-39
0.058122836 0.021703608 1.3310001 6.5505995e-39
0.064745732 0.024326276 1.3310001 1.9085556e-38
0.067394882 0.024326276 1.3310001 1.8715706e-38
-0.01737814 0.029571615 1.3310001 1.1042933e-38
-0.013404405 0.026948946 1.3310001 6.9964436e-39
-0.0081060911 0.026948946 1.3310001 6.0831263e-39
0.064745732 0.026948946 1.3310001 1.8532384e-38
0.067394882 0.026948946 1.3310001 1.8162175e-38
0.070927098 0.028697392 1.3310001 1.6875376e-38
0.075342357 0.029571615 1.3310001 1.7701171e-38
0.081965245 0.029571615 1.3310001 1.7700813e-38
0.087263562 0.029571615 1.3310001 1.6043458e-38
0.092561878 0.029571615 1.3310001 1.4939274e-38
0.096535616 0.026948946 1.3310001 1.7153764e-38
0.10183392 0.029571615 1.3310001 1.33698e-38
-0.020027298 0.033505619 1.3310001 1.2523423e-38
-0.01737814 0.032194283 1.3310001 1.1043644e-38
-0.0014831981 0.032194283 1.3310001 4.5165195e-39
0.0038151159 0.032194283 1.3310001 7.7408092e-39
0.072693199 0.032194283 1.3310001 1.3376264e-38
0.077108465 0.033068508 1.3310001 1.2451078e-38
0.080640666 0.032194283 1.3310001 1.4756298e-38
0.087263562 0.032194283 1.3310001 1.336871e-38
0.091237299 0.032194283 1.3310001 1.2723325e-38
-0.025325611 0.037439622 1.3310001 1.2246846e-38
-0.022676455 0.037439622 1.3310001 1.2063173e-38
0.12832549 0.046618961 1.3310001 5.6267781e-39
-0.030623926 0.053175632 1.3310001 1.2704945e-38
-0.027974769 0.053175632 1.3310001 1.2521273e-38
0.12832549 0.051864296 1.3310001 5.5288483e-39
-0.030623926 0.057109639 1.3310001 1.2245412e-38
-0.027974769 0.057109639 1.3310001 1.2152858e-38
-0.030623926 0.062354974 1.3310001 1.1785517e-38
-0.02665019 0.062354974 1.3310001 1.1509289e-38
-0.022676455 0.061043639 1.3310001 1.1234498e-38
0.12655939 0.062792085 1.3310001 5.804366e-39
-0.02665019 0.06760031 1.3310001 1.1140506e-38
-0.021351876 0.06760031 1.3310001 1.0773513e-38
-0.01737814 0.068911649 1.3310001 9.3888076e-39
0.13274077 0.068037421 1.3310001 5.527049e-39
-0.021351878 0.072845653 1.3310001 1.1415992e-38
-0.01737814 0.071534321 1.3310001 1.021604e-38
0.12302718 0.074156985 1.3310001 5.8929547e-39
0.12700091 0.074156985 1.3310001 5.6221117e-39
-0.020027298 0.079402328 1.3310001 1.1230883e-38
-0.01737814 0.078090996 1.3310001 1.0213887e-38
0.12302718 0.078090996 1.3310001 6.4482655e-39
0.12567633 0.078090996 1.3310001 6.0848695e-39
-0.01737814 0.083336323 1.3310001 9.0160846e-39
0.1097814 0.084647663 1.3310001 8.0094563e-39
0.12302718 0.084647663 1.3310001 6.9074429e-39
0.12567633 0.084647663 1.3310001 6.4497018e-39
-0.01737814 0.087270327 1.3310001 8.0044621e-39
-0.013845931 0.088144556 1.3310001 5.4301941e-39
0.1097814 0.089892998 1.3310001 8.1020148e-39
0.12037802 0.089892998 1.3310001 6.0723139e-39
-0.01737814 0.09251567 1.3310001 1.0214245e-38
-0.013404405 0.09251567 1.3310001 8.8327598e-39
0.1097814 0.09251567 1.3310001 7.4563021e-39
0.12037802 0.09251567 1.3310001 5.3340468e-39
-0.01737814 0.096449673 1.3310001 1.0859594e-38
0.10889834 0.096012555 1.3310001 6.2595792e-39
0.11243056 0.096449673 1.3310001 6.6265625e-39
0.11596277 0.096012555 1.3310001 7.2665411e-39
-0.014728984 0.10169501 1.3310001 1.0491168e-38
0.10183392 0.10300634 1.3310001 6.2606638e-39
0.10713224 0.10038368 1.3310001 6.9903283e-39
0.11243056 0.10038368 1.3310001 9.1093565e-39
-0.013845931 0.10650324 1.3310001 1.0490813e-38
0.099184766 0.10825168 1.3310001 1.297182e-38
0.10271698 0.10650324 1.3310001 1.0947856e-38
-0.012079827 0.11218569 1.3310001 1.1043258e-38
-0.0094306692 0.11349702 1.3310001 1.1042536e-38
0.097860187 0.11218569 1.3310001 1.4260368e-38
0.10183392 0.11218569 1.3310001 1.4259652e-38
-0.012079827 0.11743101 1.3310001 1.1504583e-38
-0.0094306692 0.11743101 1.3310001 1.1319832e-38
0.093886457 0.11874235 1.3310001 1.4259287e-38
0.097860187 0.11743101 1.3310001 1.3891586e-38
0.10183392 0.11743101 1.3310001 1.3707556e-38
0.033079643 -0.046660405 1.3360001 1.3364012e-38
0.037068307 -0.046660405 1.3360001 1.2074742e-38
0.041056972 -0.046660405 1.3360001 1.4847426e-38
0.027761426 -0.042711623 1.3360001 1.3814551e-38
0.03175009 -0.042711623 1.3360001 1.3169539e-38
0.037068307 -0.042711623 1.3360001 1.3355756e-38
0.041943341 -0.043150377 1.3360002 1.733564e-38
0.047704741 -0.042711623 1.3360001 1.8622419e-38
0.051693406 -0.042711623 1.3360001 1.7424241e-38
